# .PCD v.7 - Point Cloud Data file format
VERSION .7
FIELDS x y z rgb
SIZE 4 4 4 4
TYPE F F F F
COUNT 1 1 1 1
WIDTH 1218
HEIGHT 1
VIEWPOINT 0 0 0 1 0 0 0
POINTS 1218
DATA ascii
-0.07817143 0.3387429 1.368 2.300933e-39
-0.07528953 0.3375048 1.363 2.391323e-39
-0.07269333 0.3375048 1.363 1.380045e-39
-0.07009715 0.3375048 1.363 3.705902e-40
-0.06750095 0.3375048 1.363 1.841051e-39
-0.06490476 0.3375048 1.363 3.407634e-39
-0.06253714 0.3387429 1.368 4.239533e-39
-0.05993143 0.3387429 1.368 5.068229e-39
-0.05732571 0.3387429 1.368 5.069688e-39
-0.05472 0.3387429 1.368 5.159333e-39
-0.05211429 0.3387429 1.368 4.238788e-39
-0.04972572 0.3402286 1.374 3.408324e-39
-0.04710858 0.3402286 1.374 2.851574e-39
-0.04449143 0.3402286 1.374 2.392392e-39
-0.04202667 0.3414667 1.379 2.947347e-39
-0.0394 0.3414667 1.379 3.494417e-39
-0.03677334 0.3414667 1.379 3.857817e-39
-0.03414667 0.3414667 1.379 4.225156e-39
-0.02973143 0.3513714 1.419 3.85817e-39
0.04816953 0.329581 1.331 1.469738e-39
0.05051429 0.3283429 1.326 2.578948e-39
0.05304001 0.3283429 1.326 3.688872e-39
0.05556572 0.3283429 1.326 4.424279e-39
0.05809143 0.3283429 1.326 5.251545e-39
0.06061715 0.3283429 1.326 5.343052e-39
0.06290477 0.3271048 1.321 5.434161e-39
0.06542096 0.3271048 1.321 5.984448e-39
0.06793715 0.3271048 1.321 6.628006e-39
0.07045334 0.3271048 1.321 6.354283e-39
0.07296953 0.3271048 1.321 6.081272e-39
0.07520001 0.3258667 1.316 5.990496e-39
0.07770667 0.3258667 1.316 5.990133e-39
0.0805181 0.3271048 1.321 5.622787e-39
0.08303429 0.3271048 1.321 5.345864e-39
0.08555048 0.3271048 1.321 5.253331e-39
0.08806667 0.3271048 1.321 5.161476e-39
0.09058286 0.3271048 1.321 5.161813e-39
0.09345143 0.3283429 1.326 5.252944e-39
0.09633905 0.329581 1.331 5.24901e-39
0.09887429 0.329581 1.331 5.343403e-39
0.1010286 0.3283429 1.326 8.944407e-39
0.1035543 0.3283429 1.326 1.252746e-38
0.10608 0.3283429 1.326 1.419738e-38
0.1103124 0.3117524 1.259 1.133418e-38
0.1127105 0.3117524 1.259 7.071726e-39
0.1146514 0.3105143 1.254 6.061541e-39
0.11704 0.3105143 1.254 5.154669e-39
0.1194286 0.3105143 1.254 4.879526e-39
0.1213314 0.3092762 1.249 4.698713e-39
0.1237105 0.3092762 1.249 4.789463e-39
0.1260895 0.3092762 1.249 4.972419e-39
0.1284686 0.3092762 1.249 4.604363e-39
0.1308476 0.3092762 1.249 4.327482e-39
0.1332267 0.3092762 1.249 1.033523e-38
0.1356057 0.3092762 1.249 1.630454e-38
0.1379848 0.3092762 1.249 1.538619e-38
0.1409257 0.3105143 1.254 1.446783e-38
0.1777371 0.3209143 1.296 7.439035e-39
0.1795105 0.3196762 1.291 5.513731e-40
0.1814057 0.3186857 1.287 3.680609e-40
0.1828343 0.3127429 1.263 7.35414e-40
0.1846533 0.3117524 1.259 1.377907e-39
0.1863086 0.3105143 1.254 3.045656e-39
0.1879448 0.3092762 1.249 4.793793e-39
0.1897143 0.3082857 1.245 5.621422e-39
0.1920857 0.3082857 1.245 6.542646e-39
0.1936762 0.3070476 1.24 6.452604e-39
0.1960381 0.3070476 1.24 6.360768e-39
0.1984 0.3070476 1.24 7.827268e-39
0.2015714 0.3082857 1.245 9.403584e-39
0.2039429 0.3082857 1.245 1.244748e-38
-0.08598857 0.3413486 1.368 1.087648e-38
-0.08374857 0.3428457 1.374 8.111318e-39
-0.08077715 0.3413486 1.368 5.346204e-39
-0.07817143 0.3413486 1.368 5.627089e-39
-0.07556572 0.3413486 1.368 5.907971e-39
-0.07269333 0.340101 1.363 5.345832e-39
-0.07009715 0.340101 1.363 4.875899e-39
-0.06774857 0.3413486 1.368 5.055991e-39
-0.06490476 0.340101 1.363 5.328279e-39
-0.06253714 0.3413486 1.368 5.243269e-39
-0.05993143 0.3413486 1.368 5.066779e-39
-0.05732571 0.3413486 1.368 4.974233e-39
-0.05472 0.3413486 1.368 4.79018e-39
-0.05211429 0.3413486 1.368 4.053322e-39
-0.04972572 0.3428457 1.374 3.406533e-39
-0.04710858 0.3428457 1.374 2.576432e-39
-0.04449143 0.3428457 1.374 1.841023e-39
-0.04202667 0.3440933 1.379 2.573908e-39
-0.03957143 0.3455905 1.385 3.307162e-39
-0.03498857 0.3525771 1.413 4.408471e-39
-0.03243428 0.3540743 1.419 3.673781e-39
-0.02973143 0.3540743 1.419 2.939096e-39
-0.02714286 0.3555714 1.425 3.398991e-39
-0.02453143 0.3570686 1.431 3.858168e-39
-0.02180572 0.3570686 1.431 2.939813e-39
0.04816953 0.3321162 1.331 1.745235e-39
0.05051429 0.3308686 1.326 2.946271e-39
0.05304001 0.3308686 1.326 4.239515e-39
0.05556572 0.3308686 1.326 4.974573e-39
0.05809143 0.3308686 1.326 5.802564e-39
0.06038858 0.329621 1.321 5.618571e-39
0.06290477 0.329621 1.321 5.43524e-39
0.06542096 0.329621 1.321 5.802205e-39
0.06793715 0.329621 1.321 6.2614e-39
0.07045334 0.329621 1.321 6.079898e-39
0.07296953 0.329621 1.321 5.990541e-39
0.07520001 0.3283733 1.316 5.989791e-39
0.07800191 0.329621 1.321 6.080186e-39
0.0805181 0.329621 1.321 5.805033e-39
0.08303429 0.329621 1.321 5.619927e-39
0.08555048 0.329621 1.321 5.528092e-39
0.08806667 0.329621 1.321 5.436255e-39
0.09058286 0.329621 1.321 5.713196e-39
0.09345143 0.3308686 1.326 5.988714e-39
0.09597715 0.3308686 1.326 6.263514e-39
0.09850287 0.3308686 1.326 6.538704e-39
0.1010286 0.3308686 1.326 8.105689e-39
0.1035543 0.3308686 1.326 9.76487e-39
0.1103124 0.3141505 1.259 1.13356e-38
0.1127105 0.3141505 1.259 6.70437e-39
0.1146514 0.3129029 1.254 6.341694e-39
0.11704 0.3129029 1.254 5.979392e-39
0.1194286 0.3129029 1.254 5.70821e-39
0.1218171 0.3129029 1.254 5.434135e-39
0.1237105 0.3116553 1.249 5.528836e-39
0.1260895 0.3116553 1.249 5.715379e-39
0.1284686 0.3116553 1.249 4.790929e-39
0.1308476 0.3116553 1.249 3.956565e-39
0.1332267 0.3116553 1.249 8.942993e-39
0.1356057 0.3116553 1.249 1.401261e-38
0.1379848 0.3116553 1.249 1.437709e-38
0.1770514 0.3221352 1.291 5.51049e-39
0.1795105 0.3221352 1.291 3.677021e-40
0.1814057 0.3211372 1.287 4.602565e-40
0.18392 0.3129029 1.254 1.102403e-39
0.1855657 0.3116553 1.249 3.413716e-39
0.1879448 0.3116553 1.249 5.712148e-39
0.1897143 0.3106571 1.245 6.172794e-39
0.1920857 0.3106571 1.245 6.54228e-39
0.1944571 0.3106571 1.245 6.2682e-39
0.1960381 0.3094095 1.24 5.992698e-39
0.1992 0.3106571 1.245 7.827261e-39
0.2015714 0.3106571 1.245 9.681601e-39
0.2045981 0.3116553 1.249 1.281446e-38
-0.09193334 0.34672 1.379 1.474333e-38
-0.08859429 0.3439543 1.368 1.308346e-38
-0.08598857 0.3439543 1.368 1.142643e-38
-0.08338286 0.3439543 1.368 9.952341e-39
-0.08077715 0.3439543 1.368 8.571587e-39
-0.07817143 0.3439543 1.368 9.027543e-39
-0.07528953 0.3426971 1.363 9.48853e-39
-0.07269333 0.3426971 1.363 9.406397e-39
-0.07035428 0.3439543 1.368 9.401742e-39
-0.06774857 0.3439543 1.368 8.387255e-39
-0.06490476 0.3426971 1.363 7.36232e-39
-0.06253714 0.3439543 1.368 6.245549e-39
-0.05993143 0.3439543 1.368 5.151064e-39
-0.05732571 0.3439543 1.368 4.789467e-39
-0.05472 0.3439543 1.368 4.514308e-39
-0.05211429 0.3439543 1.368 3.959695e-39
-0.04950857 0.3439543 1.368 3.404738e-39
-0.04710858 0.3454629 1.374 2.301278e-39
-0.04449143 0.3454629 1.374 1.288214e-39
-0.04202667 0.34672 1.379 2.20513e-39
-0.03971429 0.3494857 1.39 3.123494e-39
-0.03498857 0.3552686 1.413 4.592505e-39
-0.03243428 0.3567771 1.419 3.306441e-39
-0.02973143 0.3567771 1.419 2.021101e-39
-0.02714286 0.3582857 1.425 2.847978e-39
-0.02453143 0.3597943 1.431 3.766333e-39
-0.02180572 0.3597943 1.431 2.848337e-39
-0.01908 0.3597943 1.431 1.92895e-39
0.04816953 0.3346515 1.331 2.112595e-39
0.05051429 0.3333943 1.326 3.405807e-39
0.05304001 0.3333943 1.326 4.789808e-39
0.05556572 0.3333943 1.326 5.524863e-39
0.05809143 0.3333943 1.326 6.352845e-39
0.06038858 0.3321372 1.321 5.894055e-39
0.06290477 0.3321372 1.321 5.434863e-39
0.06542096 0.3321372 1.321 5.619596e-39
0.06793715 0.3321372 1.321 5.896192e-39
0.07045334 0.3321372 1.321 5.897279e-39
0.07296953 0.3321372 1.321 5.989099e-39
0.07548572 0.3321372 1.321 6.081277e-39
0.07800191 0.3321372 1.321 6.172741e-39
0.0805181 0.3321372 1.321 5.989056e-39
0.08303429 0.3321372 1.321 5.896141e-39
0.08555048 0.3321372 1.321 5.803227e-39
0.08806667 0.3321372 1.321 5.802881e-39
0.09058286 0.3321372 1.321 6.264941e-39
0.09309905 0.3321372 1.321 6.724114e-39
0.09561525 0.3321372 1.321 7.191181e-39
0.09813143 0.3321372 1.321 7.73396e-39
0.1010286 0.3333943 1.326 7.359102e-39
0.1127105 0.3165486 1.259 6.337025e-39
0.1146514 0.3152915 1.254 6.536843e-39
0.11704 0.3152915 1.254 6.812368e-39
0.1194286 0.3152915 1.254 6.445044e-39
0.1218171 0.3152915 1.254 6.170252e-39
0.1242057 0.3152915 1.254 6.265673e-39
0.1265943 0.3152915 1.254 6.450791e-39
0.1289829 0.3152915 1.254 4.977845e-39
0.1313714 0.3152915 1.254 3.594601e-39
0.1332267 0.3140343 1.249 7.642564e-39
0.1361486 0.3152915 1.254 1.171206e-38
0.1385371 0.3152915 1.254 1.336835e-38
0.1759448 0.3271086 1.301 7.174706e-39
0.1777371 0.3258514 1.296 3.673781e-39
0.1802057 0.3258514 1.296 2.762268e-40
0.1819695 0.3245943 1.291 6.446449e-40
0.1824286 0.3210743 1.277 1.012353e-39
0.1828343 0.3175543 1.263 9.187305e-40
0.18392 0.3152915 1.254 9.187333e-40
0.1855657 0.3140343 1.249 3.781781e-39
0.1873429 0.3130286 1.245 6.723067e-39
0.1897143 0.3130286 1.245 6.632347e-39
0.1920857 0.3130286 1.245 6.633052e-39
0.1944571 0.3130286 1.245 6.176016e-39
0.1968286 0.3130286 1.245 5.715765e-39
0.19984 0.3140343 1.249 7.827268e-39
0.2022191 0.3140343 1.249 1.00493e-38
0.2045981 0.3140343 1.249 1.318144e-38
-0.09380572 0.34656 1.368 1.437493e-38
-0.0912 0.34656 1.368 1.446819e-38
-0.08859429 0.34656 1.368 1.271326e-38
-0.08598857 0.34656 1.368 1.096618e-38
-0.08338286 0.34656 1.368 9.582857e-39
-0.08077715 0.34656 1.368 8.293948e-39
-0.07788571 0.3452933 1.363 8.477636e-39
-0.07528953 0.3452933 1.363 8.661345e-39
-0.07269333 0.3452933 1.363 8.847566e-39
-0.07009715 0.3452933 1.363 9.033756e-39
-0.06750095 0.3452933 1.363 9.681637e-39
-0.06490476 0.3452933 1.363 1.032978e-38
-0.06253714 0.34656 1.368 7.547731e-39
-0.05993143 0.34656 1.368 4.869799e-39
-0.05732571 0.34656 1.368 4.695104e-39
-0.05472 0.34656 1.368 4.605778e-39
-0.05211429 0.34656 1.368 4.142653e-39
-0.04950857 0.34656 1.368 3.678451e-39
-0.04710858 0.34808 1.374 2.850852e-39
-0.04465333 0.3493467 1.379 2.02146e-39
-0.04220953 0.3508667 1.385 2.664307e-39
-0.03971429 0.3521334 1.39 3.399005e-39
-0.03738667 0.3551733 1.402 3.858196e-39
-0.03498857 0.35796 1.413 4.317361e-39
-0.03229715 0.35796 1.413 3.398995e-39
-0.02973143 0.35948 1.419 2.572832e-39
-0.02702857 0.35948 1.419 3.216037e-39
-0.02442857 0.361 1.425 3.859603e-39
-0.02171429 0.361 1.425 3.123843e-39
-0.019 0.361 1.425 2.388125e-39
0.04816953 0.3371867 1.331 1.928942e-39
0.05051429 0.33592 1.326 3.312536e-39
0.05304001 0.33592 1.326 4.789446e-39
0.05556572 0.33592 1.326 5.157515e-39
0.05809143 0.33592 1.326 5.61743e-39
0.06038858 0.3346533 1.321 5.342662e-39
0.06290477 0.3346533 1.321 5.067504e-39
0.06542096 0.3346533 1.321 5.252959e-39
0.06793715 0.3346533 1.321 5.437355e-39
0.07045334 0.3346533 1.321 5.713586e-39
0.07296953 0.3346533 1.321 5.988733e-39
0.07548572 0.3346533 1.321 6.082363e-39
0.07829715 0.33592 1.326 6.175253e-39
0.08082286 0.33592 1.326 6.172721e-39
0.08303429 0.3346533 1.321 6.265268e-39
0.08555048 0.3346533 1.321 5.803216e-39
0.08806667 0.3346533 1.321 5.342987e-39
0.09058286 0.3346533 1.321 5.989807e-39
0.09309905 0.3346533 1.321 6.633355e-39
0.09525334 0.3333867 1.316 7.092515e-39
0.09776001 0.3333867 1.316 7.460208e-39
0.1122629 0.31768 1.254 5.510504e-39
0.1146514 0.31768 1.254 5.706019e-39
0.11704 0.31768 1.254 5.896522e-39
0.1194286 0.31768 1.254 5.988016e-39
0.1218171 0.31768 1.254 6.171687e-39
0.1242057 0.31768 1.254 6.449347e-39
0.1265943 0.31768 1.254 6.727383e-39
0.1289829 0.31768 1.254 4.886387e-39
0.1313714 0.31768 1.254 3.128605e-39
0.13376 0.31768 1.254 7.460306e-39
0.1361486 0.31768 1.254 1.170739e-38
0.1385371 0.31768 1.254 1.327653e-38
0.1770514 0.3270533 1.291 2.112581e-39
0.1795105 0.3270533 1.291 5.520934e-40
0.1814057 0.32604 1.287 8.283159e-40
0.1831429 0.3247733 1.282 1.104545e-39
0.1828343 0.31996 1.263 1.194593e-39
0.1831867 0.3164133 1.249 1.286077e-39
0.1855657 0.3164133 1.249 3.689592e-39
0.1873429 0.3154 1.245 6.081306e-39
0.1897143 0.3154 1.245 6.356857e-39
0.1913143 0.3141333 1.24 6.632348e-39
0.1936762 0.3141333 1.24 6.176025e-39
0.1960381 0.3141333 1.24 5.805456e-39
0.1992 0.3154 1.245 8.197845e-39
0.2015714 0.3154 1.245 1.060103e-38
0.2045981 0.3164133 1.249 1.31825e-38
-0.09641143 0.3491657 1.368 1.437494e-38
-0.09380572 0.3491657 1.368 1.428239e-38
-0.09160001 0.3506972 1.374 1.428236e-38
-0.08859429 0.3491657 1.368 1.234339e-38
-0.08598857 0.3491657 1.368 1.050629e-38
-0.08338286 0.3491657 1.368 9.213396e-39
-0.08077715 0.3491657 1.368 8.018804e-39
-0.07788571 0.3478895 1.363 7.92624e-39
-0.07528953 0.3478895 1.363 7.834451e-39
-0.07269333 0.3478895 1.363 8.293675e-39
-0.07009715 0.3478895 1.363 8.756439e-39
-0.06774857 0.3491657 1.368 1.097125e-38
-0.06490476 0.3478895 1.363 1.326316e-38
-0.06253714 0.3491657 1.368 8.941831e-39
-0.05993143 0.3491657 1.368 4.601857e-39
-0.05732571 0.3491657 1.368 4.601109e-39
-0.05472 0.3491657 1.368 4.692944e-39
-0.05234286 0.3506972 1.374 4.325601e-39
-0.04972572 0.3506972 1.374 3.952159e-39
-0.04710858 0.3506972 1.374 3.308592e-39
-0.04465333 0.3519734 1.379 2.755784e-39
-0.04236191 0.354781 1.39 3.21532e-39
-0.03988571 0.3563124 1.396 3.674504e-39
-0.03738667 0.3578438 1.402 3.858182e-39
-0.03484 0.35912 1.407 4.041846e-39
-0.03229715 0.3606514 1.413 3.582663e-39
-0.02960572 0.3606514 1.413 3.123484e-39
-0.02702857 0.3621829 1.419 3.492261e-39
-0.02432571 0.3621829 1.419 3.95108e-39
-0.02171429 0.3637143 1.425 3.39935e-39
-0.01908 0.3652457 1.431 2.939117e-39
-0.01635429 0.3652457 1.431 4.787686e-39
0.04816953 0.3397219 1.331 1.745254e-39
0.05070477 0.3397219 1.331 3.219266e-39
0.05324 0.3397219 1.331 4.78837e-39
0.05556572 0.3384457 1.326 4.790531e-39
0.05809143 0.3384457 1.326 4.88274e-39
0.06061715 0.3384457 1.326 4.791279e-39
0.06290477 0.3371695 1.321 4.792708e-39
0.06542096 0.3371695 1.321 4.886332e-39
0.06793715 0.3371695 1.321 5.070011e-39
0.07045334 0.3371695 1.321 5.529915e-39
0.07296953 0.3371695 1.321 5.990178e-39
0.07548572 0.3371695 1.321 6.08346e-39
0.07829715 0.3384457 1.326 6.174194e-39
0.08082286 0.3384457 1.326 6.356765e-39
0.08334858 0.3384457 1.326 6.631901e-39
0.08587429 0.3384457 1.326 5.711381e-39
0.08840001 0.3384457 1.326 4.885239e-39
0.09092572 0.3384457 1.326 5.714645e-39
0.09345143 0.3384457 1.326 6.63335e-39
0.09561525 0.3371695 1.321 6.909206e-39
0.09813143 0.3371695 1.321 7.271877e-39
0.1122629 0.3200686 1.254 4.683997e-39
0.1146514 0.3200686 1.254 4.875583e-39
0.11704 0.3200686 1.254 5.071455e-39
0.1194286 0.3200686 1.254 5.62068e-39
0.1218171 0.3200686 1.254 6.172767e-39
0.1242057 0.3200686 1.254 6.541544e-39
0.1265943 0.3200686 1.254 6.999647e-39
0.1289829 0.3200686 1.254 4.886716e-39
0.1313714 0.3200686 1.254 2.769511e-39
0.1332267 0.3187924 1.249 7.278092e-39
0.1361486 0.3200686 1.254 1.180317e-38
0.1385371 0.3200686 1.254 1.327687e-38
0.1647562 0.3295124 1.291 1.612408e-38
0.1672152 0.3295124 1.291 1.4202e-38
0.1721333 0.3295124 1.291 6.245199e-39
0.1745924 0.3295124 1.291 1.840451e-40
0.1770514 0.3295124 1.291 5.513745e-40
0.1795105 0.3295124 1.291 9.19434e-40
0.1814057 0.3284914 1.287 1.106332e-39
0.1828343 0.3223657 1.263 1.470451e-39
0.1831867 0.3187924 1.249 1.745614e-39
0.1855657 0.3187924 1.249 3.597765e-39
0.1873429 0.3177714 1.245 5.532437e-39
0.1897143 0.3177714 1.245 6.083837e-39
0.1920857 0.3177714 1.245 6.72668e-39
0.1936762 0.3164952 1.24 6.267857e-39
0.1968286 0.3177714 1.245 5.895132e-39
0.19984 0.3187924 1.249 8.476927e-39
0.2022191 0.3187924 1.249 1.115526e-38
-0.09683429 0.3533143 1.374 1.465405e-38
-0.09421715 0.3533143 1.374 1.419165e-38
-0.09160001 0.3533143 1.374 1.382139e-38
-0.08898287 0.3533143 1.374 1.18806e-38
-0.08598857 0.3517714 1.368 1.004676e-38
-0.08338286 0.3517714 1.368 9.215225e-39
-0.08077715 0.3517714 1.368 8.479422e-39
-0.07788571 0.3504857 1.363 8.386111e-39
-0.07528953 0.3504857 1.363 8.38473e-39
-0.07269333 0.3504857 1.363 8.753202e-39
-0.07009715 0.3504857 1.363 9.213806e-39
-0.06750095 0.3504857 1.363 1.077751e-38
-0.06490476 0.3504857 1.363 1.234124e-38
-0.06253714 0.3517714 1.368 9.864558e-39
-0.05993143 0.3517714 1.368 7.456679e-39
-0.05732571 0.3517714 1.368 5.608065e-39
-0.05472 0.3517714 1.368 3.866419e-39
-0.05211429 0.3517714 1.368 3.862473e-39
-0.04972572 0.3533143 1.374 3.858886e-39
-0.04710858 0.3533143 1.374 3.674497e-39
-0.04465333 0.3546 1.379 3.490468e-39
-0.04236191 0.3574286 1.39 3.582303e-39
-0.03988571 0.3589714 1.396 3.766692e-39
-0.03738667 0.3605143 1.402 3.858168e-39
-0.03471619 0.3605143 1.402 3.950004e-39
-0.03216 0.3618 1.407 3.766333e-39
-0.02960572 0.3633429 1.413 3.582662e-39
-0.02691429 0.3633429 1.413 3.76705e-39
-0.02432571 0.3648857 1.419 3.95108e-39
-0.02171429 0.3664286 1.425 3.766692e-39
-0.01908 0.3679715 1.431 3.581944e-39
-0.01635429 0.3679715 1.431 4.512138e-39
0.04816953 0.3422572 1.331 2.204416e-39
0.05070477 0.3422572 1.331 3.400426e-39
0.05324 0.3422572 1.331 4.60398e-39
0.05577524 0.3422572 1.331 4.603989e-39
0.05809143 0.3409714 1.326 4.695834e-39
0.06061715 0.3409714 1.326 4.052279e-39
0.06290477 0.3396857 1.321 3.408712e-39
0.06542096 0.3396857 1.321 3.963311e-39
0.06793715 0.3396857 1.321 4.51828e-39
0.07045334 0.3396857 1.321 4.976751e-39
0.07296953 0.3396857 1.321 5.441329e-39
0.07548572 0.3396857 1.321 5.716139e-39
0.07829715 0.3409714 1.326 5.989465e-39
0.08082286 0.3409714 1.326 6.172751e-39
0.08334858 0.3409714 1.326 6.264209e-39
0.08587429 0.3409714 1.326 5.805013e-39
0.08840001 0.3409714 1.326 5.437681e-39
0.09058286 0.3396857 1.321 6.083051e-39
0.09309905 0.3396857 1.321 6.820244e-39
0.09525334 0.3384 1.316 7.088576e-39
0.09776001 0.3384 1.316 7.359053e-39
0.1122629 0.3224572 1.254 5.235023e-39
0.1146514 0.3224572 1.254 5.523843e-39
0.11704 0.3224572 1.254 5.899786e-39
0.1194286 0.3224572 1.254 5.991256e-39
0.1218171 0.3224572 1.254 6.08273e-39
0.1242057 0.3224572 1.254 6.449712e-39
0.1265943 0.3224572 1.254 6.725204e-39
0.1289829 0.3224572 1.254 5.160401e-39
0.1313714 0.3224572 1.254 3.591364e-39
0.13376 0.3224572 1.254 7.741598e-39
0.1361486 0.3224572 1.254 1.189931e-38
0.1385371 0.3224572 1.254 1.327577e-38
0.1672152 0.3319714 1.291 1.161447e-38
0.1696743 0.3319714 1.291 7.990123e-39
0.1721333 0.3319714 1.291 4.041122e-39
0.1745924 0.3319714 1.291 1.840311e-40
0.1770514 0.3319714 1.291 5.517318e-40
0.1795105 0.3319714 1.291 9.197913e-40
0.1814057 0.3309429 1.287 1.104897e-39
0.1817143 0.3270857 1.272 1.289286e-39
0.1822553 0.3237429 1.259 1.286775e-39
0.1831867 0.3211714 1.249 1.286797e-39
0.1855657 0.3211714 1.249 3.692838e-39
0.1873429 0.3201428 1.245 6.177429e-39
0.1889524 0.3188571 1.24 6.727377e-39
0.1920857 0.3201428 1.245 7.27732e-39
0.1936762 0.3188571 1.24 6.451884e-39
0.1968286 0.3201428 1.245 5.709659e-39
0.19984 0.3211714 1.249 8.655564e-39
0.2022191 0.3211714 1.249 1.170985e-38
-0.09718667 0.3572267 1.379 1.492843e-38
-0.09456 0.3572267 1.379 1.420054e-38
-0.09160001 0.3559315 1.374 1.345222e-38
-0.08898287 0.3559315 1.374 1.151003e-38
-0.08598857 0.3543772 1.368 9.58687e-39
-0.08338286 0.3543772 1.368 9.21702e-39
-0.08077715 0.3543772 1.368 8.938618e-39
-0.07788571 0.3530819 1.363 8.937875e-39
-0.07528953 0.3530819 1.363 8.939701e-39
-0.07269333 0.3530819 1.363 9.308871e-39
-0.07009715 0.3530819 1.363 9.769836e-39
-0.06750095 0.3530819 1.363 1.05985e-38
-0.06490476 0.3530819 1.363 1.151938e-38
-0.06253714 0.3543772 1.368 1.087941e-38
-0.05993143 0.3543772 1.368 1.030717e-38
-0.05732571 0.3543772 1.368 6.706862e-39
-0.05472 0.3543772 1.368 3.124562e-39
-0.05211429 0.3543772 1.368 3.491188e-39
-0.04972572 0.3559315 1.374 3.858529e-39
-0.04710858 0.3559315 1.374 4.041122e-39
-0.04465333 0.3572267 1.379 4.224793e-39
-0.04236191 0.3600762 1.39 4.041481e-39
-0.03988571 0.3616305 1.396 3.858178e-39
-0.03722667 0.3616305 1.396 3.858547e-39
-0.03471619 0.3631848 1.402 3.950014e-39
-0.03216 0.36448 1.407 3.950004e-39
-0.02960572 0.3660343 1.413 4.041839e-39
-0.02691429 0.3660343 1.413 3.950363e-39
-0.02432571 0.3675886 1.419 3.950363e-39
-0.02171429 0.3691429 1.425 4.134035e-39
-0.019 0.3691429 1.425 4.318069e-39
-0.01628571 0.3691429 1.425 4.23664e-39
0.04816953 0.3447924 1.331 2.663592e-39
0.05070477 0.3447924 1.331 3.581944e-39
0.05324 0.3447924 1.331 4.503902e-39
0.05577524 0.3447924 1.331 4.507505e-39
0.05809143 0.3434972 1.326 4.506422e-39
0.06061715 0.3434972 1.326 3.311478e-39
0.06290477 0.3422019 1.321 2.119413e-39
0.06542096 0.3422019 1.321 3.039924e-39
0.06793715 0.3422019 1.321 3.961165e-39
0.07045334 0.3422019 1.321 4.423588e-39
0.07296953 0.3422019 1.321 4.980345e-39
0.07548572 0.3422019 1.321 5.44096e-39
0.07829715 0.3434972 1.326 5.896536e-39
0.08082286 0.3434972 1.326 5.896524e-39
0.08334858 0.3434972 1.326 5.988341e-39
0.08587429 0.3434972 1.326 5.98904e-39
0.08840001 0.3434972 1.326 5.987275e-39
0.09058286 0.3422019 1.321 6.45186e-39
0.09309905 0.3422019 1.321 7.002144e-39
0.09525334 0.3409067 1.316 7.267955e-39
0.09776001 0.3409067 1.316 7.539873e-39
0.1106629 0.3271771 1.263 1.086854e-38
0.1127105 0.326141 1.259 5.811164e-39
0.1146514 0.3248457 1.254 6.264276e-39
0.11704 0.3248457 1.254 6.817076e-39
0.1194286 0.3248457 1.254 6.451879e-39
0.1218171 0.3248457 1.254 6.082026e-39
0.1242057 0.3248457 1.254 6.266057e-39
0.1265943 0.3248457 1.254 6.540128e-39
0.1289829 0.3248457 1.254 5.525991e-39
0.1313714 0.3248457 1.254 4.508997e-39
0.13376 0.3248457 1.254 8.296867e-39
0.1361486 0.3248457 1.254 1.207973e-38
0.1696743 0.3344305 1.291 3.673816e-39
0.1721333 0.3344305 1.291 1.928906e-39
0.1745924 0.3344305 1.291 1.843899e-40
0.1770514 0.3344305 1.291 5.52808e-40
0.1789543 0.3333943 1.287 9.2015e-40
0.180701 0.3320991 1.282 1.10418e-39
0.1811429 0.3284724 1.268 1.287133e-39
0.1815314 0.3248457 1.254 1.103104e-39
0.1831867 0.3235505 1.249 9.20541e-40
0.1855657 0.3235505 1.249 3.880116e-39
0.1879448 0.3235505 1.249 6.815626e-39
0.1897143 0.3225143 1.245 7.363773e-39
0.1920857 0.3225143 1.245 7.921595e-39
0.1936762 0.3212191 1.24 6.728087e-39
0.1960381 0.3212191 1.24 5.52529e-39
0.1992 0.3225143 1.245 8.926109e-39
0.2015714 0.3225143 1.245 1.235848e-38
-0.09718667 0.3598533 1.379 1.456033e-38
-0.09456 0.3598533 1.379 1.309163e-38
-0.09160001 0.3585486 1.374 1.158928e-38
-0.08859429 0.3569829 1.368 1.077643e-38
-0.08598857 0.3569829 1.368 9.86166e-39
-0.08338286 0.3569829 1.368 9.492169e-39
-0.08077715 0.3569829 1.368 9.03047e-39
-0.07788571 0.3556781 1.363 9.122297e-39
-0.07528953 0.3556781 1.363 9.308132e-39
-0.07269333 0.3556781 1.363 9.492533e-39
-0.07009715 0.3556781 1.363 9.770907e-39
-0.06750095 0.3556781 1.363 1.105983e-38
-0.06466667 0.3543733 1.358 1.235056e-38
-0.06230858 0.3556781 1.363 1.115419e-38
-0.05993143 0.3569829 1.368 1.003524e-38
-0.05732571 0.3569829 1.368 6.43028e-39
-0.05472 0.3569829 1.368 2.940892e-39
-0.05211429 0.3569829 1.368 3.674862e-39
-0.04950857 0.3569829 1.368 4.317707e-39
-0.04710858 0.3585486 1.374 4.775806e-39
-0.04484762 0.3614191 1.385 5.143148e-39
-0.04236191 0.3627238 1.39 4.775806e-39
-0.03988571 0.3642895 1.396 4.500678e-39
-0.03738667 0.3658552 1.402 4.317026e-39
-0.03471619 0.3658552 1.402 4.133336e-39
-0.03216 0.36716 1.407 4.133316e-39
-0.02960572 0.3687257 1.413 4.133316e-39
-0.02691429 0.3687257 1.413 4.041839e-39
-0.02432571 0.3702914 1.419 3.950723e-39
-0.02162286 0.3702914 1.419 4.042202e-39
-0.019 0.3718571 1.425 4.135839e-39
-0.01628571 0.3718571 1.425 4.418885e-39
-0.01357143 0.3718571 1.425 4.603296e-39
0.04835048 0.3486324 1.336 2.663591e-39
0.05070477 0.3473276 1.331 3.67378e-39
0.05324 0.3473276 1.331 4.687223e-39
0.05577524 0.3473276 1.331 5.056024e-39
0.05809143 0.3460229 1.326 5.516971e-39
0.06061715 0.3460229 1.326 4.873022e-39
0.06290477 0.3447181 1.321 4.137628e-39
0.06542096 0.3447181 1.321 3.864641e-39
0.06819429 0.3460229 1.326 3.591668e-39
0.07045334 0.3447181 1.321 3.409456e-39
0.07296953 0.3447181 1.321 3.233663e-39
0.07548572 0.3447181 1.321 4.334959e-39
0.07829715 0.3460229 1.326 5.528103e-39
0.08082286 0.3460229 1.326 5.620297e-39
0.08334858 0.3460229 1.326 5.712832e-39
0.08587429 0.3460229 1.326 5.711739e-39
0.08840001 0.3460229 1.326 5.802543e-39
0.09092572 0.3460229 1.326 6.171723e-39
0.09345143 0.3460229 1.326 6.541197e-39
0.09597715 0.3460229 1.326 6.895603e-39
0.09850287 0.3460229 1.326 7.351198e-39
0.1108 0.3614191 1.385 7.076043e-39
0.1134381 0.3614191 1.385 7.475386e-39
0.1106629 0.3295829 1.263 1.142496e-38
0.1122629 0.3272343 1.254 7.54924e-39
0.1146514 0.3272343 1.254 6.815301e-39
0.11704 0.3272343 1.254 6.081327e-39
0.1194286 0.3272343 1.254 6.08132e-39
0.1213314 0.3259295 1.249 5.989487e-39
0.1237105 0.3259295 1.249 6.263922e-39
0.1260895 0.3259295 1.249 6.630558e-39
0.1289829 0.3272343 1.254 5.433121e-39
0.1313714 0.3272343 1.254 4.324606e-39
0.1332267 0.3259295 1.249 8.019876e-39
0.1356057 0.3259295 1.249 1.170949e-38
0.1696743 0.3368895 1.291 6.888022e-39
0.1721333 0.3368895 1.291 3.490109e-39
0.1745924 0.3368895 1.291 9.291309e-41
0.1770514 0.3368895 1.291 5.52808e-40
0.1789543 0.3358457 1.287 1.011986e-39
0.180701 0.334541 1.282 9.2015e-40
0.1804286 0.3295829 1.263 7.36479e-40
0.1815314 0.3272343 1.254 1.286775e-39
0.18392 0.3272343 1.254 1.748505e-39
0.1855657 0.3259295 1.249 4.061296e-39
0.1879448 0.3259295 1.249 6.353591e-39
0.1897143 0.3248857 1.245 6.906035e-39
0.1920857 0.3248857 1.245 7.464203e-39
0.1944571 0.3248857 1.245 6.450407e-39
0.1960381 0.323581 1.24 5.524953e-39
0.1984 0.323581 1.24 9.117016e-39
0.2015714 0.3248857 1.245 1.27316e-38
-0.09456 0.36248 1.379 1.207465e-38
-0.09160001 0.3611657 1.374 9.86485e-39
-0.08859429 0.3595886 1.368 1.004313e-38
-0.08598857 0.3595886 1.368 1.022682e-38
-0.08338286 0.3595886 1.368 9.675831e-39
-0.08077715 0.3595886 1.368 9.215212e-39
-0.07788571 0.3582743 1.363 9.398517e-39
-0.07528953 0.3582743 1.363 9.676547e-39
-0.07242667 0.35696 1.358 9.676561e-39
-0.06984 0.35696 1.358 9.770188e-39
-0.06725334 0.35696 1.358 1.152116e-38
-0.06466667 0.35696 1.358 1.326569e-38
-0.06208 0.35696 1.358 1.152082e-38
-0.05949333 0.35696 1.358 9.761892e-39
-0.05711619 0.3582743 1.363 6.245891e-39
-0.05452 0.3582743 1.363 2.847979e-39
-0.05211429 0.3595886 1.368 3.858531e-39
-0.04950857 0.3595886 1.368 4.868002e-39
-0.04710858 0.3611657 1.374 5.51049e-39
-0.04484762 0.3640572 1.385 6.153338e-39
-0.04236191 0.3653714 1.39 5.602325e-39
-0.03971429 0.3653714 1.39 5.143158e-39
-0.03722667 0.3669486 1.396 4.68399e-39
-0.03471619 0.3685257 1.402 4.316638e-39
-0.03204572 0.3685257 1.402 4.224793e-39
-0.02948 0.36984 1.407 4.224793e-39
-0.02691429 0.3714172 1.413 4.041122e-39
-0.02422286 0.3714172 1.413 3.950368e-39
-0.02162286 0.3729943 1.419 3.950375e-39
-0.019 0.3745714 1.425 4.045804e-39
-0.01628571 0.3745714 1.425 4.50929e-39
-0.01362857 0.3761486 1.431 5.061391e-39
-0.01090286 0.3761486 1.431 5.429102e-39
0.04835048 0.3511772 1.336 2.755456e-39
0.05070477 0.3498629 1.331 3.765669e-39
0.05324 0.3498629 1.331 4.877026e-39
0.05577524 0.3498629 1.331 5.712877e-39
0.05809143 0.3485486 1.326 6.635534e-39
0.06061715 0.3485486 1.326 6.456523e-39
0.06290477 0.3472343 1.321 6.261727e-39
0.06542096 0.3472343 1.321 4.689759e-39
0.06793715 0.3472343 1.321 3.221106e-39
0.07045334 0.3472343 1.321 2.395301e-39
0.07296953 0.3472343 1.321 1.577035e-39
0.07548572 0.3472343 1.321 3.32586e-39
0.07829715 0.3485486 1.326 5.160049e-39
0.08082286 0.3485486 1.326 5.252594e-39
0.08334858 0.3485486 1.326 5.434818e-39
0.08587429 0.3485486 1.326 5.525568e-39
0.08840001 0.3485486 1.326 5.619218e-39
0.09092572 0.3485486 1.326 5.803986e-39
0.09345143 0.3485486 1.326 6.075173e-39
0.09633905 0.3498629 1.331 6.61541e-39
0.09887429 0.3498629 1.331 7.258622e-39
0.1050667 0.36248 1.379 6.983482e-39
0.1076933 0.36248 1.379 6.799808e-39
0.1108 0.3640572 1.385 5.333666e-39
0.1134381 0.3640572 1.385 3.879799e-39
0.1160762 0.3640572 1.385 9.221757e-39
0.1187143 0.3640572 1.385 1.455892e-38
0.1122629 0.3296229 1.254 9.390607e-39
0.1146514 0.3296229 1.254 7.359464e-39
0.11704 0.3296229 1.254 5.436667e-39
0.1189524 0.3283086 1.249 5.712183e-39
0.1213314 0.3283086 1.249 5.986955e-39
0.1237105 0.3283086 1.249 6.353923e-39
0.1260895 0.3283086 1.249 6.722371e-39
0.1284686 0.3283086 1.249 5.4324e-39
0.1313714 0.3296229 1.254 4.234929e-39
0.1332267 0.3283086 1.249 7.74331e-39
0.1356057 0.3283086 1.249 1.134001e-38
0.1696743 0.3393486 1.291 1.012239e-38
0.1721333 0.3393486 1.291 5.051312e-39
0.1745924 0.3393486 1.291 9.255576e-41
0.1765029 0.3382972 1.287 6.450051e-40
0.1782591 0.3369829 1.282 1.196375e-39
0.1787276 0.3333029 1.268 7.379154e-40
0.1804286 0.3319886 1.263 2.773058e-40
0.1815314 0.3296229 1.254 1.470813e-39
0.18392 0.3296229 1.254 2.665781e-39
0.1855657 0.3283086 1.249 4.242441e-39
0.1879448 0.3283086 1.249 5.896197e-39
0.1897143 0.3272571 1.245 6.448288e-39
0.1920857 0.3272571 1.245 7.091121e-39
0.1944571 0.3272571 1.245 6.264946e-39
0.1960381 0.3259428 1.24 5.526033e-39
0.1984 0.3259428 1.24 9.308226e-39
-0.09456 0.3651067 1.379 1.160868e-38
-0.09193334 0.3651067 1.379 9.397053e-39
-0.08898287 0.3637829 1.374 9.676466e-39
-0.08598857 0.3621943 1.368 1.004456e-38
-0.08338286 0.3621943 1.368 9.583989e-39
-0.08077715 0.3621943 1.368 9.215924e-39
-0.07788571 0.3608705 1.363 9.58326e-39
-0.07528953 0.3608705 1.363 9.953129e-39
-0.07242667 0.3595467 1.358 1.013682e-38
-0.06984 0.3595467 1.358 1.032084e-38
-0.06725334 0.3595467 1.358 1.179379e-38
-0.06466667 0.3595467 1.358 1.336362e-38
-0.06230858 0.3608705 1.363 1.161302e-38
-0.05971238 0.3608705 1.363 9.948078e-39
-0.05711619 0.3608705 1.363 6.33952e-39
-0.05472 0.3621943 1.368 2.755785e-39
-0.05211429 0.3621943 1.368 5.238216e-39
-0.04972572 0.3637829 1.374 7.812477e-39
-0.04710858 0.3637829 1.374 7.534458e-39
-0.04449143 0.3637829 1.374 7.256441e-39
-0.04236191 0.3680191 1.39 6.429562e-39
-0.03988571 0.3696076 1.396 5.602684e-39
-0.03722667 0.3696076 1.396 5.051312e-39
-0.03471619 0.3711962 1.402 4.408464e-39
-0.03216 0.37252 1.407 4.224793e-39
-0.02948 0.37252 1.407 4.133316e-39
-0.02691429 0.3741086 1.413 3.949645e-39
-0.02422286 0.3741086 1.413 3.858538e-39
-0.02162286 0.3756971 1.419 3.675237e-39
-0.019 0.3772857 1.425 3.496591e-39
-0.01635429 0.3788743 1.431 4.324907e-39
-0.01362857 0.3788743 1.431 5.244696e-39
0.04816953 0.3523981 1.331 2.47998e-39
0.05070477 0.3523981 1.331 4.420769e-39
0.05324 0.3523981 1.331 6.361494e-39
0.05577524 0.3523981 1.331 6.821733e-39
0.05809143 0.3510743 1.326 7.374199e-39
0.06061715 0.3510743 1.326 7.284534e-39
0.06290477 0.3497505 1.321 7.287747e-39
0.06542096 0.3497505 1.321 6.917162e-39
0.06793715 0.3497505 1.321 6.546562e-39
0.07045334 0.3497505 1.321 4.794485e-39
0.07296953 0.3497505 1.321 3.042816e-39
0.07548572 0.3497505 1.321 4.05518e-39
0.07829715 0.3510743 1.326 4.976026e-39
0.08082286 0.3510743 1.326 5.342991e-39
0.08334858 0.3510743 1.326 5.618135e-39
0.08587429 0.3510743 1.326 5.710326e-39
0.08840001 0.3510743 1.326 5.803235e-39
0.09126858 0.3523981 1.331 5.617052e-39
0.09380381 0.3523981 1.331 5.425479e-39
0.1012514 0.3608705 1.363 7.808895e-39
0.1042286 0.3621943 1.368 7.349726e-39
0.1073029 0.3637829 1.374 6.892703e-39
0.10992 0.3637829 1.374 5.426206e-39
0.1125372 0.3637829 1.374 3.95763e-39
0.1151543 0.3637829 1.374 8.109316e-39
0.1182 0.3651067 1.379 1.23538e-38
0.1122629 0.3320115 1.254 1.178299e-38
0.1146514 0.3320115 1.254 8.371056e-39
0.1165733 0.3306876 1.249 5.067873e-39
0.1189524 0.3306876 1.249 5.435599e-39
0.1213314 0.3306876 1.249 5.803263e-39
0.1237105 0.3306876 1.249 6.078735e-39
0.1260895 0.3306876 1.249 6.355366e-39
0.1284686 0.3306876 1.249 5.526026e-39
0.1308476 0.3306876 1.249 4.696624e-39
0.1332267 0.3306876 1.249 7.642165e-39
0.1356057 0.3306876 1.249 1.060318e-38
0.1721333 0.3418076 1.291 6.714755e-39
0.1740514 0.3407486 1.287 1.561925e-39
0.1758171 0.3394248 1.282 1.566233e-39
0.1775638 0.338101 1.277 1.568742e-39
0.1780228 0.3343943 1.263 1.012347e-39
0.1798571 0.3333353 1.259 5.528178e-40
0.1815314 0.3320115 1.254 1.563017e-39
0.18392 0.3320115 1.254 2.665061e-39
0.1855657 0.3306876 1.249 4.241351e-39
0.1879448 0.3306876 1.249 5.806506e-39
0.1897143 0.3296286 1.245 6.450077e-39
0.1920857 0.3296286 1.245 7.093992e-39
0.1944571 0.3296286 1.245 6.357863e-39
0.1968286 0.3296286 1.245 5.61895e-39
0.1992 0.3296286 1.245 9.678085e-39
-0.0912 0.3648 1.368 8.937187e-39
-0.08859429 0.3648 1.368 9.401733e-39
-0.08598857 0.3648 1.368 9.860209e-39
-0.08338286 0.3648 1.368 9.492165e-39
-0.08077715 0.3648 1.368 9.216655e-39
-0.07788571 0.3634667 1.363 9.676189e-39
-0.07528953 0.3634667 1.363 1.022829e-38
-0.07242667 0.3621334 1.358 1.059815e-38
-0.06984 0.3621334 1.358 1.096514e-38
-0.06725334 0.3621334 1.358 1.215865e-38
-0.06466667 0.3621334 1.358 1.345332e-38
-0.06208 0.3621334 1.358 1.179742e-38
-0.05971238 0.3634667 1.363 1.013211e-38
-0.05732571 0.3648 1.368 6.43315e-39
-0.05472 0.3648 1.368 2.758655e-39
-0.05234286 0.3664 1.374 6.716192e-39
-0.04972572 0.3664 1.374 1.075086e-38
-0.04710858 0.3664 1.374 9.558428e-39
-0.04484762 0.3693334 1.385 8.362413e-39
-0.04236191 0.3706667 1.39 7.258234e-39
-0.03988571 0.3722667 1.396 6.153338e-39
-0.03722667 0.3722667 1.396 5.326819e-39
-0.03456762 0.3722667 1.396 4.592135e-39
-0.03216 0.3752 1.407 4.316628e-39
-0.02948 0.3752 1.407 4.041481e-39
-0.02691429 0.3768 1.413 3.950005e-39
-0.02432571 0.3784 1.419 3.858534e-39
-0.02171429 0.38 1.425 3.400438e-39
-0.01908 0.3816 1.431 2.944139e-39
-0.01635429 0.3816 1.431 4.14088e-39
-0.01368572 0.3832 1.437 5.427288e-39
-0.01099429 0.3848 1.443 5.428358e-39
-0.008245715 0.3848 1.443 5.436677e-39
0.05344 0.3562667 1.336 7.926267e-39
0.05598477 0.3562667 1.336 8.021328e-39
0.05787238 0.3522667 1.321 8.112823e-39
0.06038858 0.3522667 1.321 8.204678e-39
0.06290477 0.3522667 1.321 8.388704e-39
0.06517334 0.3509334 1.316 9.124102e-39
0.06768 0.3509334 1.316 9.949888e-39
0.07018667 0.3509334 1.316 7.285924e-39
0.07269333 0.3509334 1.316 4.612637e-39
0.07520001 0.3509334 1.316 4.694774e-39
0.07800191 0.3522667 1.321 4.880952e-39
0.0805181 0.3522667 1.321 5.342638e-39
0.08334858 0.3536 1.326 5.894e-39
0.08587429 0.3536 1.326 5.89435e-39
0.08840001 0.3536 1.326 5.98368e-39
0.09126858 0.3549334 1.331 5.338685e-39
0.0941562 0.3562667 1.336 4.781564e-39
0.09829333 0.3621334 1.358 6.618264e-39
0.10088 0.3621334 1.358 8.451032e-39
0.1038476 0.3634667 1.363 7.716352e-39
0.1068343 0.3648 1.368 7.076748e-39
0.10944 0.3648 1.368 5.519149e-39
0.1125372 0.3664 1.374 4.050183e-39
0.1151543 0.3664 1.374 7.088691e-39
0.1182 0.3677334 1.379 1.023801e-38
0.1208267 0.3677334 1.379 1.21802e-38
0.1122629 0.3344 1.254 1.417612e-38
0.1146514 0.3344 1.254 9.382671e-39
0.1165733 0.3330667 1.249 4.69909e-39
0.1189524 0.3330667 1.249 5.158657e-39
0.1213314 0.3330667 1.249 5.711449e-39
0.1237105 0.3330667 1.249 5.803626e-39
0.1260895 0.3330667 1.249 5.987685e-39
0.1284686 0.3330667 1.249 5.530329e-39
0.1308476 0.3330667 1.249 5.159025e-39
0.1332267 0.3330667 1.249 7.54135e-39
0.1356057 0.3330667 1.249 9.95315e-39
0.1740514 0.3432 1.287 3.128155e-39
0.1758171 0.3418667 1.282 2.487467e-39
0.1775638 0.3405333 1.277 1.932861e-39
0.1780228 0.3368 1.263 1.378614e-39
0.1798571 0.3357334 1.259 8.279712e-40
0.1815314 0.3344 1.254 1.747056e-39
0.18392 0.3344 1.254 2.761205e-39
0.1863086 0.3344 1.254 4.240632e-39
0.1879448 0.3330667 1.249 5.714679e-39
0.1897143 0.332 1.245 6.452248e-39
0.1920857 0.332 1.245 7.186198e-39
0.1944571 0.332 1.245 6.450781e-39
0.1968286 0.332 1.245 5.801538e-39
0.1992 0.332 1.245 9.956081e-39
-0.0912 0.3674057 1.368 8.109981e-39
-0.08859429 0.3674057 1.368 9.030142e-39
-0.08598857 0.3674057 1.368 9.950643e-39
-0.08338286 0.3674057 1.368 9.675488e-39
-0.08077715 0.3674057 1.368 9.492176e-39
-0.07788571 0.3660628 1.363 9.859877e-39
-0.07528953 0.3660628 1.363 1.02283e-38
-0.07242667 0.36472 1.358 1.059816e-38
-0.06984 0.36472 1.358 1.096479e-38
-0.06725334 0.36472 1.358 1.188603e-38
-0.06466667 0.36472 1.358 1.271686e-38
-0.06208 0.36472 1.358 1.161447e-38
-0.05949333 0.36472 1.358 1.049982e-38
-0.05711619 0.3660628 1.363 6.430997e-39
-0.05472 0.3674057 1.368 2.394542e-39
-0.05234286 0.3690172 1.374 6.15944e-39
-0.04972572 0.3690172 1.374 9.924336e-39
-0.04710858 0.3690172 1.374 9.374042e-39
-0.04484762 0.3719715 1.385 8.823744e-39
-0.04220953 0.3719715 1.385 7.165322e-39
-0.03971429 0.3733143 1.39 5.602325e-39
-0.03722667 0.3749257 1.396 5.051312e-39
-0.03456762 0.3749257 1.396 4.408823e-39
-0.03204572 0.3765371 1.402 4.224793e-39
-0.02948 0.37788 1.407 4.0422e-39
-0.02691429 0.3794914 1.413 3.858531e-39
-0.02422286 0.3794914 1.413 3.675218e-39
-0.02171429 0.3827143 1.425 3.5841e-39
-0.01908 0.3843257 1.431 3.402238e-39
-0.01642286 0.3859372 1.437 4.323837e-39
-0.01368572 0.3859372 1.437 5.155367e-39
-0.01099429 0.3875486 1.443 4.97025e-39
-0.008245715 0.3875486 1.443 4.882439e-39
0.05535619 0.3547829 1.321 8.755289e-39
0.05765333 0.35344 1.316 8.295414e-39
0.06016001 0.35344 1.316 8.294357e-39
0.06266667 0.35344 1.316 8.385484e-39
0.06517334 0.35344 1.316 9.12197e-39
0.06768 0.35344 1.316 9.862388e-39
0.06992 0.3520972 1.311 8.851117e-39
0.07269333 0.35344 1.316 7.931638e-39
0.07520001 0.35344 1.316 7.552412e-39
0.07800191 0.3547829 1.321 7.17396e-39
0.0805181 0.3547829 1.321 6.346377e-39
0.08303429 0.3547829 1.321 5.610962e-39
0.08587429 0.3561257 1.326 5.702424e-39
0.08906667 0.3588114 1.336 5.793914e-39
0.09202286 0.3604228 1.342 6.067999e-39
0.09493144 0.3617657 1.347 6.34206e-39
0.09785905 0.3631086 1.352 7.260403e-39
0.1012514 0.3660628 1.363 8.174812e-39
0.1034667 0.36472 1.358 7.5334e-39
0.1064438 0.3660628 1.363 6.893811e-39
0.10944 0.3674057 1.368 4.785213e-39
0.1125372 0.3690172 1.374 2.765563e-39
0.1151543 0.3690172 1.374 5.893007e-39
0.1187143 0.3719715 1.385 9.132415e-39
0.1213524 0.3719715 1.385 1.19044e-38
0.1122629 0.3367886 1.254 1.464106e-38
0.1146514 0.3367886 1.254 9.477726e-39
0.1165733 0.3354457 1.249 4.327439e-39
0.1189524 0.3354457 1.249 4.883152e-39
0.1213314 0.3354457 1.249 5.435962e-39
0.1237105 0.3354457 1.249 5.619996e-39
0.1260895 0.3354457 1.249 5.895869e-39
0.1284686 0.3354457 1.249 5.712924e-39
0.1308476 0.3354457 1.249 5.621784e-39
0.1328 0.3343714 1.245 5.442036e-39
0.1351714 0.3343714 1.245 5.354553e-39
0.1375429 0.3343714 1.245 1.015085e-38
0.1740514 0.3456514 1.287 1.756009e-39
0.1751314 0.3429657 1.277 1.749925e-39
0.1763124 0.3405485 1.268 1.746328e-39
0.1774591 0.3381315 1.259 1.104545e-39
0.1798571 0.3381315 1.259 4.631474e-40
0.1815314 0.3367886 1.254 1.935759e-39
0.18392 0.3367886 1.254 3.500557e-39
0.1863086 0.3367886 1.254 4.609049e-39
0.1879448 0.3354457 1.249 5.806881e-39
0.1903238 0.3354457 1.249 6.451549e-39
0.1927029 0.3354457 1.249 7.187645e-39
0.1950819 0.3354457 1.249 6.357876e-39
0.197461 0.3354457 1.249 5.616784e-39
0.19984 0.3354457 1.249 1.005005e-38
-0.0912 0.3700114 1.368 7.281309e-39
-0.08859429 0.3700114 1.368 8.662461e-39
-0.08598857 0.3700114 1.368 1.013253e-38
-0.08338286 0.3700114 1.368 9.949568e-39
-0.08077715 0.3700114 1.368 9.766968e-39
-0.07788571 0.368659 1.363 9.952069e-39
-0.07528953 0.368659 1.363 1.022865e-38
-0.07242667 0.3673066 1.358 1.059815e-38
-0.06984 0.3673066 1.358 1.105877e-38
-0.06750095 0.368659 1.363 1.152155e-38
-0.06490476 0.368659 1.363 1.2074e-38
-0.06208 0.3673066 1.358 1.152371e-38
-0.05971238 0.368659 1.363 1.095755e-38
-0.05732571 0.3700114 1.368 6.52068e-39
-0.05472 0.3700114 1.368 2.118683e-39
-0.05234286 0.3716343 1.374 5.609876e-39
-0.04972572 0.3716343 1.374 9.191115e-39
-0.04710858 0.3716343 1.374 9.188261e-39
-0.04465333 0.3729867 1.379 9.282584e-39
-0.04220953 0.3746096 1.385 7.164605e-39
-0.03971429 0.3759619 1.39 5.143507e-39
-0.03706667 0.3759619 1.39 4.684688e-39
-0.03456762 0.3775848 1.396 4.31699e-39
-0.03204572 0.3792076 1.402 4.225159e-39
-0.02948 0.38056 1.407 4.133685e-39
-0.02691429 0.3821829 1.413 3.8589e-39
-0.02422286 0.3821829 1.413 3.583386e-39
-0.02162286 0.3838057 1.419 3.768128e-39
-0.019 0.3854286 1.425 3.952886e-39
-0.01635429 0.3870514 1.431 4.414946e-39
-0.01368572 0.3886743 1.437 4.970257e-39
-0.01099429 0.3902971 1.443 4.603984e-39
-0.008245715 0.3902971 1.443 4.326401e-39
0.05304001 0.3586514 1.326 1.077676e-38
0.05535619 0.3572991 1.321 9.580371e-39
0.05765333 0.3559467 1.316 8.478723e-39
0.06016001 0.3559467 1.316 8.476592e-39
0.06266667 0.3559467 1.316 8.476964e-39
0.06492572 0.3545943 1.311 9.120187e-39
0.06742286 0.3545943 1.311 9.771278e-39
0.06992 0.3545943 1.311 1.051385e-38
0.07241715 0.3545943 1.311 1.133281e-38
0.07491429 0.3545943 1.311 1.041013e-38
0.07800191 0.3572991 1.321 9.481348e-39
0.0805181 0.3572991 1.321 7.439058e-39
0.08334858 0.3586514 1.326 5.41903e-39
0.0861981 0.3600038 1.331 5.51122e-39
0.08906667 0.3613562 1.336 5.695981e-39
0.09236572 0.3643315 1.347 6.799457e-39
0.09528382 0.3656839 1.352 7.902924e-39
0.09829333 0.3673066 1.358 7.902931e-39
0.1012514 0.368659 1.363 7.994027e-39
0.1034667 0.3673066 1.358 7.350797e-39
0.1064438 0.368659 1.363 6.711569e-39
0.10944 0.3700114 1.368 4.143438e-39
0.1125372 0.3716343 1.374 1.572418e-39
0.1155733 0.3729867 1.379 4.789544e-39
0.1187143 0.3746096 1.385 8.026423e-39
0.1165733 0.3378248 1.249 4.059807e-39
0.1189524 0.3378248 1.249 4.607974e-39
0.1213314 0.3378248 1.249 5.161156e-39
0.1237105 0.3378248 1.249 5.437757e-39
0.1260895 0.3378248 1.249 5.804023e-39
0.1284686 0.3378248 1.249 5.991641e-39
0.1308476 0.3378248 1.249 6.174214e-39
0.1328 0.3367428 1.245 3.399036e-39
0.1351714 0.3367428 1.245 7.48781e-40
0.1375429 0.3367428 1.245 7.757395e-39
0.1738971 0.3429638 1.268 1.01273e-39
0.1763124 0.3429638 1.268 1.655565e-39
0.1774591 0.3405296 1.259 9.219465e-40
0.1791429 0.3391772 1.254 1.876409e-40
0.1815314 0.3391772 1.254 2.213421e-39
0.18392 0.3391772 1.254 4.238121e-39
0.1863086 0.3391772 1.254 5.069675e-39
0.1879448 0.3378248 1.249 5.989852e-39
0.1903238 0.3378248 1.249 6.542685e-39
0.1927029 0.3378248 1.249 7.187298e-39
0.1950819 0.3378248 1.249 6.356801e-39
0.197461 0.3378248 1.249 5.526737e-39
0.19984 0.3378248 1.249 1.014438e-38
0.2022191 0.3378248 1.249 1.474656e-38
-0.09421715 0.3742515 1.374 1.002269e-38
-0.0912 0.3726172 1.368 7.279158e-39
-0.08859429 0.3726172 1.368 8.386257e-39
-0.08598857 0.3726172 1.368 9.581176e-39
-0.08307809 0.3712552 1.363 9.581876e-39
-0.08048191 0.3712552 1.363 9.674778e-39
-0.07788571 0.3712552 1.363 1.004354e-38
-0.07501333 0.3698933 1.358 1.041304e-38
-0.07242667 0.3698933 1.358 1.08758e-38
-0.06984 0.3698933 1.358 1.133678e-38
-0.06725334 0.3698933 1.358 1.179812e-38
-0.06466667 0.3698933 1.358 1.225766e-38
-0.06208 0.3698933 1.358 1.152334e-38
-0.05971238 0.3712552 1.363 1.068097e-38
-0.05732571 0.3726172 1.368 6.247328e-39
-0.05472 0.3726172 1.368 1.842827e-39
-0.05234286 0.3742515 1.374 5.609891e-39
-0.04972572 0.3742515 1.374 9.468086e-39
-0.04710858 0.3742515 1.374 9.280497e-39
-0.04484762 0.3772477 1.385 9.19041e-39
-0.04220953 0.3772477 1.385 6.888381e-39
-0.03971429 0.3786096 1.39 4.592494e-39
-0.03706667 0.3786096 1.39 4.041123e-39
-0.03456762 0.3802438 1.396 3.490116e-39
-0.03190857 0.3802438 1.396 3.674153e-39
-0.02937524 0.3818781 1.402 3.858188e-39
-0.0268 0.38324 1.407 3.766717e-39
-0.02422286 0.3848743 1.413 3.675586e-39
-0.02162286 0.3865086 1.419 3.767409e-39
-0.019 0.3881429 1.425 3.952523e-39
-0.01635429 0.3897772 1.431 4.41422e-39
-0.01368572 0.3914115 1.437 4.877341e-39
-0.01099429 0.3930457 1.443 4.510357e-39
0.05304001 0.3611771 1.326 1.013429e-38
0.05514667 0.3584534 1.316 9.213385e-39
0.05765333 0.3584534 1.316 8.294692e-39
0.06016001 0.3584534 1.316 8.476592e-39
0.06242858 0.3570915 1.311 8.658489e-39
0.06492572 0.3570915 1.311 9.215262e-39
0.06742286 0.3570915 1.311 9.864198e-39
0.06992 0.3570915 1.311 1.069178e-38
0.07241715 0.3570915 1.311 1.151974e-38
0.07491429 0.3570915 1.311 1.087367e-38
0.07800191 0.3598153 1.321 1.022789e-38
0.0805181 0.3598153 1.321 8.312194e-39
0.08334858 0.3611771 1.326 6.396926e-39
0.0861981 0.3625391 1.331 5.878203e-39
0.08906667 0.363901 1.336 5.418682e-39
0.09236572 0.3668972 1.347 7.259355e-39
0.09528382 0.3682591 1.352 9.188283e-39
0.09829333 0.3698933 1.358 8.637653e-39
0.1012514 0.3712552 1.363 8.087311e-39
0.1038476 0.3712552 1.363 7.260029e-39
0.1064438 0.3712552 1.363 6.529328e-39
0.10944 0.3726172 1.368 4.60369e-39
0.1125372 0.3742515 1.374 2.766996e-39
0.1155733 0.3756133 1.379 5.345938e-39
0.1187143 0.3772477 1.385 7.838785e-39
0.1217905 0.3786096 1.39 1.180961e-38
0.1249752 0.3802438 1.396 1.566556e-38
0.1165733 0.3402038 1.249 7.443711e-39
0.1189524 0.3402038 1.249 6.348514e-39
0.1213314 0.3402038 1.249 5.254052e-39
0.1233143 0.3391143 1.245 5.528872e-39
0.1256857 0.3391143 1.245 5.804013e-39
0.1280572 0.3391143 1.245 6.265696e-39
0.1304286 0.3391143 1.245 6.726643e-39
0.1328 0.3391143 1.245 3.499104e-39
0.1351714 0.3391143 1.245 3.677988e-40
0.1369905 0.3377524 1.24 6.084989e-39
0.1393524 0.3377524 1.24 1.180677e-38
0.1738971 0.3453791 1.268 9.201766e-40
0.1756171 0.3440171 1.263 1.563729e-39
0.1774591 0.3429276 1.259 1.472239e-39
0.1791429 0.3415657 1.254 1.381502e-39
0.1815314 0.3415657 1.254 2.95062e-39
0.18392 0.3415657 1.254 4.608341e-39
0.1863086 0.3415657 1.254 5.436674e-39
0.1879448 0.3402038 1.249 6.265016e-39
0.1903238 0.3402038 1.249 6.726376e-39
0.1927029 0.3402038 1.249 7.095472e-39
0.1950819 0.3402038 1.249 6.35788e-39
0.197461 0.3402038 1.249 5.620719e-39
0.19984 0.3402038 1.249 1.023979e-38
0.2022191 0.3402038 1.249 1.474549e-38
-0.09683429 0.3768686 1.374 1.244164e-38
-0.09421715 0.3768686 1.374 9.827893e-39
-0.09160001 0.3768686 1.374 7.360565e-39
-0.08898287 0.3768686 1.374 8.202187e-39
-0.08598857 0.3752229 1.368 9.03014e-39
-0.08307809 0.3738514 1.363 9.306003e-39
-0.08048191 0.3738514 1.363 9.582944e-39
-0.07788571 0.3738514 1.363 1.004355e-38
-0.07501333 0.37248 1.358 1.059528e-38
-0.07242667 0.37248 1.358 1.106163e-38
-0.06984 0.37248 1.358 1.161229e-38
-0.06725334 0.37248 1.358 1.207471e-38
-0.06466667 0.37248 1.358 1.253353e-38
-0.06208 0.37248 1.358 1.152298e-38
-0.05971238 0.3738514 1.363 1.049766e-38
-0.05732571 0.3752229 1.368 5.974334e-39
-0.05472 0.3752229 1.368 1.566237e-39
-0.05234286 0.3768686 1.374 5.609876e-39
-0.04972572 0.3768686 1.374 9.741051e-39
-0.04728 0.37824 1.379 9.464482e-39
-0.04484762 0.3798857 1.385 9.191105e-39
-0.04220953 0.3798857 1.385 6.612516e-39
-0.03957143 0.3798857 1.385 4.132957e-39
-0.03706667 0.3812572 1.39 3.398273e-39
-0.03441905 0.3812572 1.39 2.755428e-39
-0.03190857 0.3829029 1.396 3.214968e-39
-0.02924952 0.3829029 1.396 3.674149e-39
-0.0268 0.38592 1.407 3.67451e-39
-0.02412 0.38592 1.407 3.766697e-39
-0.02162286 0.3892114 1.419 3.858886e-39
-0.01892 0.3892114 1.419 4.043996e-39
-0.01635429 0.3925029 1.431 4.413853e-39
-0.01362857 0.3925029 1.431 4.87447e-39
-0.01094857 0.3941486 1.437 4.324898e-39
0.05284 0.3623314 1.321 9.489646e-39
0.05514667 0.36096 1.316 8.754583e-39
0.05743429 0.3595886 1.311 8.111392e-39
0.05993143 0.3595886 1.311 8.476957e-39
0.06242858 0.3595886 1.311 8.843237e-39
0.06492572 0.3595886 1.311 9.402155e-39
0.06742286 0.3595886 1.311 9.954955e-39
0.06992 0.3595886 1.311 1.087402e-38
0.07241715 0.3595886 1.311 1.179453e-38
0.07491429 0.3595886 1.311 1.133536e-38
0.07770667 0.36096 1.316 1.096616e-38
0.0805181 0.3623314 1.321 9.121141e-39
0.08334858 0.3637029 1.326 7.269733e-39
0.0861981 0.3650743 1.331 6.153369e-39
0.08946667 0.3680914 1.342 5.143533e-39
0.09236572 0.3694629 1.347 7.811063e-39
0.09493144 0.3694629 1.347 1.05647e-38
0.09785905 0.3708343 1.352 9.369779e-39
0.1012514 0.3738514 1.363 8.271678e-39
0.1038476 0.3738514 1.363 7.261108e-39
0.1064438 0.3738514 1.363 6.348529e-39
0.10944 0.3752229 1.368 5.156139e-39
0.1125372 0.3768686 1.374 4.055191e-39
0.1155733 0.37824 1.379 5.902307e-39
0.1182 0.37824 1.379 7.742985e-39
0.1213524 0.3798857 1.385 1.199076e-38
0.1249752 0.3829029 1.396 1.630808e-38
0.1270857 0.3812572 1.39 1.354653e-38
0.1165733 0.3425829 1.249 1.085709e-38
0.1189524 0.3425829 1.249 8.089441e-39
0.1213314 0.3425829 1.249 5.338712e-39
0.1233143 0.3414857 1.245 5.618554e-39
0.1256857 0.3414857 1.245 5.896206e-39
0.1280572 0.3414857 1.245 6.540123e-39
0.1308476 0.3425829 1.249 7.276943e-39
0.1332267 0.3425829 1.249 3.691036e-39
0.1351714 0.3414857 1.245 9.441949e-41
0.1375429 0.3414857 1.245 4.504352e-39
0.1399143 0.3414857 1.245 8.950515e-39
0.1422857 0.3414857 1.245 1.190148e-38
0.1446571 0.3414857 1.245 1.483554e-38
0.1696 0.3488915 1.272 5.51049e-39
0.1714819 0.3477943 1.268 2.758736e-40
0.1738971 0.3477943 1.268 9.194466e-40
0.175061 0.3453257 1.259 1.563008e-39
