# .PCD v.7 - Point Cloud Data file format
VERSION .7
FIELDS x y z rgb
SIZE 4 4 4 4
TYPE F F F F
COUNT 1 1 1 1
WIDTH 1212
HEIGHT 1
VIEWPOINT 0 0 0 1 0 0 0
POINTS 1212
DATA ascii
0.08405334 0.3887467 1.379 9.218826e-39
0.08668001 0.3887467 1.379 1.096513e-38
0.08930667 0.3887467 1.379 1.069284e-38
0.09160001 0.3873371 1.374 1.050665e-38
0.09456 0.3887467 1.379 1.022898e-38
0.09718667 0.3887467 1.379 1.004603e-38
0.09981334 0.3887467 1.379 9.387412e-39
0.10244 0.3887467 1.379 8.73698e-39
0.1059048 0.3918476 1.39 8.273088e-39
0.1085524 0.3918476 1.39 7.818625e-39
0.1112 0.3918476 1.39 9.856275e-39
0.1138476 0.3918476 1.39 1.198106e-38
-0.09641143 0.3882514 1.368 9.035086e-39
-0.09421715 0.3899543 1.374 8.842783e-39
-0.09160001 0.3899543 1.374 8.650514e-39
-0.08898287 0.3899543 1.374 6.905651e-39
-0.08636572 0.3899543 1.374 5.069285e-39
-0.08374857 0.3899543 1.374 5.616699e-39
-0.08113143 0.3899543 1.374 6.073714e-39
-0.07788571 0.3868324 1.363 6.713325e-39
-0.07528953 0.3868324 1.363 7.352226e-39
-0.07242667 0.3854133 1.358 8.362058e-39
-0.06953143 0.3837105 1.352 9.462648e-39
-0.06670858 0.3822915 1.347 9.095664e-39
-0.06414286 0.3822915 1.347 8.72868e-39
-0.06134857 0.3808724 1.342 8.363847e-39
-0.05852953 0.3791696 1.336 8.097365e-39
-0.05577524 0.3777505 1.331 8.939366e-39
-0.05304001 0.3763314 1.326 9.768414e-39
-0.05051429 0.3763314 1.326 9.584042e-39
-0.04798857 0.3763314 1.326 9.492549e-39
-0.04529143 0.3749124 1.321 9.217027e-39
-0.04277524 0.3749124 1.321 9.035871e-39
-0.04025905 0.3749124 1.321 9.585453e-39
-0.0376 0.3734933 1.316 1.022793e-38
-0.03509334 0.3734933 1.316 1.078359e-38
-0.03258667 0.3734933 1.316 1.142828e-38
-0.03008 0.3734933 1.316 1.244605e-38
-0.0276781 0.3749124 1.321 1.336475e-38
-0.02516191 0.3749124 1.321 1.244173e-38
-0.02264572 0.3749124 1.321 1.152224e-38
-0.0203581 0.3791696 1.336 9.106836e-39
-0.01781333 0.3791696 1.336 6.70442e-39
-0.01526857 0.3791696 1.336 8.187076e-39
0.005660953 0.4217409 1.486 5.888654e-39
0.008525715 0.4234438 1.492 3.962258e-39
0.01136762 0.4234438 1.492 3.594196e-39
0.01409524 0.4200381 1.48 3.226481e-39
0.01691429 0.4200381 1.48 5.807548e-39
0.01956 0.4163486 1.467 8.386823e-39
0.02226286 0.4146457 1.461 7.915439e-39
0.02484 0.41124 1.449 7.352584e-39
0.0276 0.41124 1.449 6.072982e-39
0.03023429 0.4095372 1.443 4.887372e-39
0.03284571 0.4078343 1.437 4.141927e-39
0.03558286 0.4078343 1.437 3.49262e-39
0.03816 0.4061314 1.431 3.031649e-39
0.04088572 0.4061314 1.431 2.571754e-39
0.04324571 0.4027257 1.419 2.296965e-39
0.04594857 0.4027257 1.419 2.113295e-39
0.04844572 0.4010229 1.413 2.572476e-39
0.05073905 0.397901 1.402 3.123487e-39
0.05340952 0.397901 1.402 3.6745e-39
0.05584 0.3961981 1.396 4.317347e-39
0.05849905 0.3961981 1.396 5.143865e-39
0.0611581 0.3961981 1.396 6.062223e-39
0.06354286 0.3944953 1.39 6.796551e-39
0.06619048 0.3944953 1.39 7.62309e-39
0.0688381 0.3944953 1.39 7.898259e-39
0.07148572 0.3944953 1.39 8.173792e-39
0.07386667 0.3930762 1.385 8.174896e-39
0.07650477 0.3930762 1.385 8.107102e-39
0.07880001 0.3913733 1.379 8.200738e-39
0.08142667 0.3913733 1.379 8.386916e-39
0.08405334 0.3913733 1.379 9.495753e-39
0.08668001 0.3913733 1.379 1.059778e-38
0.08930667 0.3913733 1.379 1.041376e-38
0.09160001 0.3899543 1.374 1.022971e-38
0.09456 0.3913733 1.379 9.861991e-39
0.09718667 0.3913733 1.379 9.490709e-39
0.1002476 0.3930762 1.385 9.016829e-39
0.10244 0.3913733 1.379 8.55079e-39
0.1055238 0.3930762 1.385 7.998299e-39
0.1085524 0.3944953 1.39 7.537751e-39
0.1112 0.3944953 1.39 9.579363e-39
-0.09641143 0.3908572 1.368 9.770891e-39
-0.09380572 0.3908572 1.368 1.060998e-38
-0.09160001 0.3925714 1.374 1.151359e-38
-0.08898287 0.3925714 1.374 8.002988e-39
-0.08636572 0.3925714 1.374 4.513959e-39
-0.08374857 0.3925714 1.374 5.065693e-39
-0.08113143 0.3925714 1.374 5.706375e-39
-0.07817143 0.3908572 1.368 6.345263e-39
-0.07528953 0.3894286 1.363 6.987048e-39
-0.07242667 0.388 1.358 7.721028e-39
-0.06953143 0.3862858 1.352 8.544308e-39
-0.06670858 0.3848572 1.347 8.727609e-39
-0.06414286 0.3848572 1.347 8.912721e-39
-0.06134857 0.3834286 1.342 8.824478e-39
-0.05852953 0.3817143 1.336 8.8324e-39
-0.05577524 0.3802857 1.331 9.215557e-39
-0.05304001 0.3788572 1.326 9.583283e-39
-0.05051429 0.3788572 1.326 9.49183e-39
-0.04798857 0.3788572 1.326 9.492183e-39
-0.04529143 0.3774286 1.321 9.584732e-39
-0.04277524 0.3774286 1.321 9.676574e-39
-0.04025905 0.3774286 1.321 1.004428e-38
-0.0376 0.376 1.316 1.041305e-38
-0.03509334 0.376 1.316 1.105876e-38
-0.03258667 0.376 1.316 1.170307e-38
-0.03008 0.376 1.316 1.226056e-38
-0.0276781 0.3774286 1.321 1.281014e-38
-0.02525714 0.3788572 1.326 1.244136e-38
-0.02300571 0.3834286 1.342 1.206965e-38
-0.02044952 0.3834286 1.342 9.478457e-39
-0.01802667 0.3862858 1.352 6.985637e-39
-0.01545143 0.3862858 1.352 7.718897e-39
0.01136762 0.4262857 1.492 3.959393e-39
0.01415238 0.4245715 1.486 3.130338e-39
0.01683429 0.4208572 1.473 7.281207e-39
0.01956 0.4191429 1.467 1.141741e-38
0.02217143 0.4157143 1.455 1.004384e-38
0.02484 0.414 1.449 8.64117e-39
0.0276 0.414 1.449 6.251631e-39
0.03023429 0.4122857 1.443 3.863908e-39
0.03284571 0.4105714 1.437 3.129583e-39
0.03558286 0.4105714 1.437 2.482071e-39
0.03832 0.4105714 1.437 2.205847e-39
0.04088572 0.4088572 1.431 2.022176e-39
0.04342857 0.4071429 1.425 1.379686e-39
0.04594857 0.4054286 1.419 8.290348e-40
0.04844572 0.4037143 1.413 1.56408e-39
0.05073905 0.4005714 1.402 2.389881e-39
0.05340952 0.4005714 1.402 3.215681e-39
0.05584 0.3988571 1.396 4.042202e-39
0.05849905 0.3988571 1.396 4.685411e-39
0.0611581 0.3988571 1.396 5.419735e-39
0.06354286 0.3971429 1.39 6.337371e-39
0.06619048 0.3971429 1.39 7.347573e-39
0.0688381 0.3971429 1.39 7.806404e-39
0.07148572 0.3971429 1.39 8.357438e-39
0.07386667 0.3957143 1.385 8.35746e-39
0.07617334 0.394 1.379 8.461857e-39
0.07880001 0.394 1.379 8.84463e-39
0.08142667 0.394 1.379 9.303823e-39
0.08405334 0.394 1.379 9.77306e-39
0.08668001 0.394 1.379 1.023046e-38
0.08930667 0.394 1.379 1.013828e-38
0.09193334 0.394 1.379 1.004606e-38
0.09456 0.394 1.379 9.495027e-39
0.09760953 0.3957143 1.385 9.030091e-39
0.1002476 0.3957143 1.385 8.646227e-39
0.1028857 0.3957143 1.385 8.362441e-39
0.1059048 0.3971429 1.39 7.809606e-39
0.1085524 0.3971429 1.39 7.354075e-39
0.1112 0.3971429 1.39 9.210932e-39
-0.09901714 0.3934629 1.368 8.941494e-39
-0.09641143 0.3934629 1.368 9.312835e-39
-0.09421715 0.3951886 1.374 1.098315e-38
-0.09160001 0.3951886 1.374 1.263178e-38
-0.08898287 0.3951886 1.374 9.491702e-39
-0.08636572 0.3951886 1.374 6.345996e-39
-0.08374857 0.3951886 1.374 5.707831e-39
-0.08077715 0.3934629 1.368 4.972051e-39
-0.07817143 0.3934629 1.368 5.336863e-39
-0.07501333 0.3905867 1.358 5.793198e-39
-0.07242667 0.3905867 1.358 7.078923e-39
-0.06953143 0.388861 1.352 8.452487e-39
-0.06670858 0.3874229 1.347 8.452466e-39
-0.06414286 0.3874229 1.347 8.545749e-39
-0.06134857 0.3859847 1.342 8.455361e-39
-0.05852953 0.384259 1.336 8.373574e-39
-0.05577524 0.382821 1.331 8.750966e-39
-0.05304001 0.3813829 1.326 9.122645e-39
-0.05051429 0.3813829 1.326 9.214871e-39
-0.04798857 0.3813829 1.326 9.399266e-39
-0.04546286 0.3813829 1.326 9.582942e-39
-0.04293714 0.3813829 1.326 9.858817e-39
-0.04025905 0.3799448 1.321 1.022832e-38
-0.03774286 0.3799448 1.321 1.059853e-38
-0.03522667 0.3799448 1.321 1.105842e-38
-0.03271048 0.3799448 1.321 1.161052e-38
-0.03019429 0.3799448 1.321 1.235166e-38
-0.02778286 0.3813829 1.326 1.30842e-38
-0.02535238 0.382821 1.331 1.271615e-38
-0.02281714 0.382821 1.331 1.234155e-38
-0.02044952 0.3859847 1.342 9.759321e-39
-0.01796 0.3874229 1.347 7.175018e-39
-0.01545143 0.388861 1.352 7.441205e-39
-0.01287619 0.388861 1.352 7.731827e-39
-0.01030095 0.388861 1.352 9.217387e-39
0.01136762 0.4291277 1.492 3.774294e-39
0.01415238 0.4274019 1.486 2.942358e-39
0.01691429 0.4256762 1.48 4.882349e-39
0.01956 0.4219372 1.467 6.826005e-39
0.02226286 0.4202114 1.461 6.082038e-39
0.02484 0.41676 1.449 5.337983e-39
0.0276 0.41676 1.449 4.229098e-39
0.03023429 0.4150343 1.443 3.035236e-39
0.03284571 0.4133086 1.437 2.207641e-39
0.03558286 0.4133086 1.437 1.380045e-39
0.03816 0.4115829 1.431 1.564792e-39
0.04088572 0.4115829 1.431 1.841375e-39
0.04342857 0.4098572 1.425 1.474033e-39
0.04594857 0.4081314 1.419 1.198889e-39
0.04844572 0.4064057 1.413 1.656277e-39
0.05073905 0.4032419 1.402 2.207288e-39
0.05340952 0.4032419 1.402 2.390238e-39
0.05584 0.4015162 1.396 2.665031e-39
0.05849905 0.4015162 1.396 3.767062e-39
0.0611581 0.4015162 1.396 4.960917e-39
0.06381714 0.4015162 1.396 5.878551e-39
0.06619048 0.3997905 1.39 6.888385e-39
0.0688381 0.3997905 1.39 7.439042e-39
0.07148572 0.3997905 1.39 7.990072e-39
0.07386667 0.3983524 1.385 8.081924e-39
0.07650477 0.3983524 1.385 8.2656e-39
0.07914286 0.3983524 1.385 8.370714e-39
0.08178096 0.3983524 1.385 8.56805e-39
0.08405334 0.3966267 1.379 9.031926e-39
0.08668001 0.3966267 1.379 9.495795e-39
0.08930667 0.3966267 1.379 9.404348e-39
0.09193334 0.3966267 1.379 9.312842e-39
0.09497143 0.3983524 1.385 8.941166e-39
0.09760953 0.3983524 1.385 8.569474e-39
0.1006095 0.3997905 1.39 8.181639e-39
0.1032571 0.3997905 1.39 7.807109e-39
0.1059048 0.3997905 1.39 7.352222e-39
0.1085524 0.3997905 1.39 6.894892e-39
0.1112 0.3997905 1.39 8.56592e-39
0.1138476 0.3997905 1.39 1.023155e-38
-0.09901714 0.3960686 1.368 8.563353e-39
-0.09683429 0.3978057 1.374 8.847895e-39
-0.09421715 0.3978057 1.374 1.126474e-38
-0.09160001 0.3978057 1.374 1.373492e-38
-0.08898287 0.3978057 1.374 1.098088e-38
-0.08636572 0.3978057 1.374 8.286772e-39
-0.08374857 0.3978057 1.374 6.258113e-39
-0.08077715 0.3960686 1.368 4.329202e-39
-0.07788571 0.394621 1.363 4.420673e-39
-0.07501333 0.3931733 1.358 4.600771e-39
-0.07210667 0.3914362 1.352 6.436778e-39
-0.06953143 0.3914362 1.352 8.361362e-39
-0.06670858 0.3899886 1.347 8.269512e-39
-0.06414286 0.3899886 1.347 8.269527e-39
-0.06134857 0.388541 1.342 8.086229e-39
-0.05852953 0.3868038 1.336 7.999786e-39
-0.05577524 0.3853562 1.331 8.378619e-39
-0.05304001 0.3839086 1.326 8.753511e-39
-0.05051429 0.3839086 1.326 9.030468e-39
-0.04798857 0.3839086 1.326 9.306701e-39
-0.04546286 0.3839086 1.326 9.674772e-39
-0.04293714 0.3839086 1.326 1.013468e-38
-0.04025905 0.382461 1.321 1.041235e-38
-0.03774286 0.382461 1.321 1.07822e-38
-0.03522667 0.382461 1.321 1.11499e-38
-0.03271048 0.382461 1.321 1.161123e-38
-0.03030857 0.3839086 1.326 1.244313e-38
-0.02788762 0.3853562 1.331 1.335934e-38
-0.02535238 0.3853562 1.331 1.299129e-38
-0.02290286 0.3868038 1.336 1.271179e-38
-0.0203581 0.3868038 1.336 1.004061e-38
-0.01789333 0.388541 1.342 7.450543e-39
-0.01539429 0.3899886 1.347 7.163539e-39
-0.01282857 0.3899886 1.347 6.988509e-39
-0.01026286 0.3899886 1.347 9.308824e-39
-0.007697144 0.3899886 1.347 1.169797e-38
0.01136762 0.4319696 1.492 3.589165e-39
0.01415238 0.4302324 1.486 2.760834e-39
0.01691429 0.4284953 1.48 2.483874e-39
0.01964 0.4264686 1.473 2.20731e-39
0.02235429 0.4247315 1.467 2.114416e-39
0.02504572 0.4229943 1.461 2.114393e-39
0.0276 0.41952 1.449 2.206564e-39
0.03023429 0.4177829 1.443 2.298759e-39
0.03284571 0.4160457 1.437 1.289286e-39
0.03558286 0.4160457 1.437 2.798127e-40
0.03832 0.4160457 1.437 9.233786e-40
0.04088572 0.4143086 1.431 1.658063e-39
0.04342857 0.4125714 1.425 1.658421e-39
0.04594857 0.4108343 1.419 1.657347e-39
0.04865143 0.4108343 1.419 1.840303e-39
0.05092 0.40736 1.407 2.023614e-39
0.05340952 0.4059124 1.402 1.65627e-39
0.05584 0.4041752 1.396 1.287139e-39
0.05849905 0.4041752 1.396 2.849065e-39
0.0611581 0.4041752 1.396 4.50282e-39
0.06381714 0.4041752 1.396 5.515162e-39
0.06619048 0.4024381 1.39 6.52248e-39
0.0688381 0.4024381 1.39 7.073132e-39
0.07148572 0.4024381 1.39 7.714553e-39
0.07386667 0.4009905 1.385 7.898591e-39
0.07650477 0.4009905 1.385 8.081913e-39
0.07914286 0.4009905 1.385 7.990446e-39
0.08178096 0.4009905 1.385 7.905446e-39
0.08441906 0.4009905 1.385 8.371459e-39
0.08705714 0.4009905 1.385 8.8425e-39
0.08969525 0.4009905 1.385 8.670694e-39
0.09233334 0.4009905 1.385 8.565908e-39
0.09497143 0.4009905 1.385 8.277452e-39
0.09796191 0.4024381 1.39 8.089106e-39
0.1006095 0.4024381 1.39 7.717448e-39
0.1032571 0.4024381 1.39 7.352254e-39
0.1059048 0.4024381 1.39 6.895225e-39
0.1085524 0.4024381 1.39 6.531501e-39
0.1112 0.4024381 1.39 7.920904e-39
0.1138476 0.4024381 1.39 9.309211e-39
-0.09901714 0.3986743 1.368 8.379647e-39
-0.09641143 0.3986743 1.368 8.566628e-39
-0.09421715 0.4004229 1.374 1.070655e-38
-0.09160001 0.4004229 1.374 1.290951e-38
-0.08898287 0.4004229 1.374 1.106382e-38
-0.08636572 0.4004229 1.374 9.30955e-39
-0.08374857 0.4004229 1.374 6.714769e-39
-0.08077715 0.3986743 1.368 4.235216e-39
-0.07788571 0.3972172 1.363 4.510728e-39
-0.07501333 0.39576 1.358 4.786234e-39
-0.07210667 0.3940115 1.352 6.251658e-39
-0.06953143 0.3940115 1.352 7.719225e-39
-0.06670858 0.3925543 1.347 7.810695e-39
-0.06390476 0.3910972 1.342 7.993306e-39
-0.06134857 0.3910972 1.342 7.901488e-39
-0.05852953 0.3893486 1.336 7.809669e-39
-0.05577524 0.3878915 1.331 8.096314e-39
-0.05304001 0.3864343 1.326 8.292541e-39
-0.05051429 0.3864343 1.326 8.476929e-39
-0.04798857 0.3864343 1.326 8.661691e-39
-0.04546286 0.3864343 1.326 9.582572e-39
-0.04293714 0.3864343 1.326 1.04109e-38
-0.04025905 0.3849772 1.321 1.068713e-38
-0.03774286 0.3849772 1.321 1.096623e-38
-0.03522667 0.3849772 1.321 1.124281e-38
-0.03283429 0.3864343 1.326 1.161195e-38
-0.03030857 0.3864343 1.326 1.216403e-38
-0.02788762 0.3878915 1.331 1.280833e-38
-0.02535238 0.3878915 1.331 1.262431e-38
-0.02290286 0.3893486 1.336 1.253101e-38
-0.0203581 0.3893486 1.336 9.943793e-39
-0.01796 0.3925543 1.347 7.359083e-39
-0.01539429 0.3925543 1.347 7.163532e-39
-0.01282857 0.3925543 1.347 7.072072e-39
-0.01026286 0.3925543 1.347 8.751675e-39
-0.007697144 0.3925543 1.347 1.041297e-38
0.008525715 0.4348114 1.492 4.967386e-39
0.01136762 0.4348114 1.492 4.049038e-39
0.01415238 0.4330629 1.486 3.131039e-39
0.01691429 0.4313143 1.48 2.669708e-39
0.01964 0.4292743 1.473 2.207295e-39
0.02235429 0.4275258 1.467 2.206211e-39
0.02494286 0.4240286 1.455 2.297327e-39
0.0276 0.42228 1.449 2.298041e-39
0.03023429 0.4205315 1.443 2.299117e-39
0.03284571 0.4187829 1.437 2.023611e-39
0.03558286 0.4187829 1.437 1.749539e-39
0.03816 0.4170343 1.431 1.748822e-39
0.04088572 0.4170343 1.431 1.748463e-39
0.04342857 0.4152857 1.425 1.83994e-39
0.04594857 0.4135371 1.419 1.931775e-39
0.04844572 0.4117886 1.413 2.023252e-39
0.05092 0.41004 1.407 2.11437e-39
0.05340952 0.4085829 1.402 1.93034e-39
0.05584 0.4068343 1.396 1.654481e-39
0.05849905 0.4068343 1.396 2.849424e-39
0.0611581 0.4068343 1.396 4.045081e-39
0.06381714 0.4068343 1.396 4.871603e-39
0.06619048 0.4050857 1.39 5.697398e-39
0.0688381 0.4050857 1.39 6.430999e-39
0.07122858 0.4036286 1.385 7.163888e-39
0.07386667 0.4036286 1.385 7.439035e-39
0.07678095 0.4050857 1.39 7.806391e-39
0.07914286 0.4036286 1.385 7.71457e-39
0.08178096 0.4036286 1.385 7.714575e-39
0.08441906 0.4036286 1.385 7.901481e-39
0.08705714 0.4036286 1.385 8.088403e-39
0.08969525 0.4036286 1.385 7.993361e-39
0.09233334 0.4036286 1.385 7.99009e-39
0.09531429 0.4050857 1.39 7.726739e-39
0.09796191 0.4050857 1.39 7.533763e-39
0.1006095 0.4050857 1.39 6.799462e-39
0.1032571 0.4050857 1.39 6.162359e-39
0.1059048 0.4050857 1.39 6.991753e-39
0.1085524 0.4050857 1.39 7.913345e-39
0.1112 0.4050857 1.39 8.103483e-39
-0.09901714 0.40128 1.368 8.288201e-39
-0.09683429 0.40304 1.374 8.384026e-39
-0.09421715 0.40304 1.374 1.024015e-38
-0.09160001 0.40304 1.374 1.207111e-38
-0.08898287 0.40304 1.374 1.114701e-38
-0.08636572 0.40304 1.374 1.031901e-38
-0.08338286 0.40128 1.368 7.171801e-39
-0.08048191 0.3998134 1.363 4.142304e-39
-0.0776 0.3983467 1.358 4.512873e-39
-0.07501333 0.3983467 1.358 4.96918e-39
-0.07210667 0.3965867 1.352 5.974706e-39
-0.06953143 0.3965867 1.352 7.076368e-39
-0.06670858 0.39512 1.347 7.35187e-39
-0.06414286 0.39512 1.347 7.717073e-39
-0.06134857 0.3936533 1.342 7.715292e-39
-0.05852953 0.3918934 1.336 7.716749e-39
-0.05577524 0.3904267 1.331 7.814348e-39
-0.05304001 0.38896 1.326 7.921256e-39
-0.05051429 0.38896 1.326 8.015967e-39
-0.04798857 0.38896 1.326 8.110318e-39
-0.04546286 0.38896 1.326 9.398531e-39
-0.04293714 0.38896 1.326 1.077716e-38
-0.04025905 0.3874934 1.321 1.096228e-38
-0.03774286 0.3874934 1.321 1.114989e-38
-0.03522667 0.3874934 1.321 1.133571e-38
-0.03283429 0.38896 1.326 1.161086e-38
-0.03030857 0.38896 1.326 1.188924e-38
-0.02788762 0.3904267 1.331 1.225696e-38
-0.02535238 0.3904267 1.331 1.234952e-38
-0.02290286 0.3918934 1.336 1.243952e-38
-0.0203581 0.3918934 1.336 9.847266e-39
-0.01796 0.39512 1.347 7.361595e-39
-0.01545143 0.3965867 1.352 7.255395e-39
-0.01287619 0.3965867 1.352 7.163565e-39
-0.01030095 0.3965867 1.352 8.102731e-39
-0.007725715 0.3965867 1.352 9.12011e-39
0.008525715 0.4376534 1.492 5.425479e-39
0.01132191 0.4358934 1.486 4.414215e-39
0.01409524 0.4341333 1.48 3.496942e-39
0.01683429 0.43208 1.473 2.855535e-39
0.01956 0.43032 1.467 2.301657e-39
0.02235429 0.43032 1.467 2.393498e-39
0.02504572 0.42856 1.461 2.484599e-39
0.0276 0.42504 1.449 2.392388e-39
0.03023429 0.42328 1.443 2.299476e-39
0.03298286 0.42328 1.443 2.757219e-39
0.03558286 0.42152 1.437 3.218549e-39
0.03832 0.42152 1.437 2.574983e-39
0.04088572 0.41976 1.431 1.932134e-39
0.04342857 0.418 1.425 2.115088e-39
0.04594857 0.41624 1.419 2.2984e-39
0.04844572 0.41448 1.413 2.2984e-39
0.05092 0.41272 1.407 2.298041e-39
0.05340952 0.4112533 1.402 2.206207e-39
0.05608 0.4112533 1.402 2.114736e-39
0.05849905 0.4094934 1.396 2.850144e-39
0.0611581 0.4094934 1.396 3.677028e-39
0.06381714 0.4094934 1.396 4.3206e-39
0.0664762 0.4094934 1.396 4.963436e-39
0.0688381 0.4077334 1.39 5.790303e-39
0.07148572 0.4077334 1.39 6.707583e-39
0.07386667 0.4062667 1.385 7.073851e-39
0.07678095 0.4077334 1.39 7.533034e-39
0.07914286 0.4062667 1.385 7.533399e-39
0.08178096 0.4062667 1.385 7.624518e-39
0.08441906 0.4062667 1.385 7.440131e-39
0.08737143 0.4077334 1.39 7.347601e-39
0.09001905 0.4077334 1.39 7.347264e-39
0.09266668 0.4077334 1.39 7.445166e-39
0.09572572 0.4094934 1.396 7.26792e-39
0.09838476 0.4094934 1.396 7.076009e-39
0.1010438 0.4094934 1.396 5.973636e-39
0.1041486 0.4112533 1.402 4.975341e-39
0.106819 0.4112533 1.402 7.212096e-39
0.1090209 0.4094934 1.396 9.402124e-39
0.1108 0.4062667 1.385 8.378268e-39
0.1134381 0.4062667 1.385 7.465647e-39
-0.09901714 0.4038857 1.368 8.568402e-39
-0.09683429 0.4056572 1.374 8.752439e-39
-0.09421715 0.4056572 1.374 9.489642e-39
-0.09160001 0.4056572 1.374 1.022683e-38
-0.08898287 0.4056572 1.374 9.491785e-39
-0.08598857 0.4038857 1.368 8.757073e-39
-0.08338286 0.4038857 1.368 6.711913e-39
-0.08048191 0.4024095 1.363 4.781924e-39
-0.0776 0.4009333 1.358 4.880568e-39
-0.07468191 0.3991619 1.352 4.968455e-39
-0.07210667 0.3991619 1.352 5.609148e-39
-0.06953143 0.3991619 1.352 6.341318e-39
-0.06670858 0.3976857 1.347 6.892687e-39
-0.06414286 0.3976857 1.347 7.532674e-39
-0.06134857 0.3962095 1.342 7.531965e-39
-0.05879238 0.3962095 1.342 7.624187e-39
-0.05577524 0.3929619 1.331 7.628163e-39
-0.05324 0.3929619 1.331 7.642165e-39
-0.05051429 0.3914858 1.326 7.735805e-39
-0.04798857 0.3914858 1.326 7.829789e-39
-0.04546286 0.3914858 1.326 9.216285e-39
-0.04293714 0.3914858 1.326 1.068459e-38
-0.04041143 0.3914858 1.326 1.087259e-38
-0.03774286 0.3900096 1.321 1.105805e-38
-0.03522667 0.3900096 1.321 1.124208e-38
-0.03283429 0.3914858 1.326 1.151831e-38
-0.03030857 0.3914858 1.326 1.179562e-38
-0.02778286 0.3914858 1.326 1.207616e-38
-0.02535238 0.3929619 1.331 1.20733e-38
-0.02281714 0.3929619 1.331 1.207288e-38
-0.0203581 0.3944381 1.336 9.662851e-39
-0.01796 0.3976857 1.347 7.180794e-39
-0.01539429 0.3976857 1.347 7.255425e-39
-0.01282857 0.3976857 1.347 7.347252e-39
-0.01030095 0.3991619 1.352 8.469001e-39
-0.007725715 0.3991619 1.352 9.49033e-39
0.008525715 0.4404953 1.492 6.159078e-39
0.01132191 0.4387238 1.486 5.056693e-39
0.01409524 0.4369524 1.48 3.953605e-39
0.01683429 0.4348857 1.473 3.311488e-39
0.01956 0.4331143 1.467 2.669374e-39
0.02235429 0.4331143 1.467 2.577557e-39
0.02504572 0.4313429 1.461 2.577525e-39
0.0276 0.4278 1.449 2.484223e-39
0.03023429 0.4260286 1.443 2.483865e-39
0.03298286 0.4260286 1.443 2.5757e-39
0.03558286 0.4242571 1.437 2.667536e-39
0.03832 0.4242571 1.437 2.208358e-39
0.04088572 0.4224858 1.431 1.749181e-39
0.04342857 0.4207143 1.425 2.024687e-39
0.04594857 0.4189429 1.419 2.392388e-39
0.04844572 0.4171714 1.413 2.576418e-39
0.05092 0.4154 1.407 2.760449e-39
0.05340952 0.4139238 1.402 2.668973e-39
0.05584 0.4121524 1.396 2.577504e-39
0.05849905 0.4121524 1.396 3.220719e-39
0.0611581 0.4121524 1.396 3.863935e-39
0.06381714 0.4121524 1.396 4.141245e-39
0.0664762 0.4121524 1.396 4.510362e-39
0.0688381 0.410381 1.39 5.428342e-39
0.07148572 0.410381 1.39 6.438178e-39
0.07413334 0.410381 1.39 6.805166e-39
0.07678095 0.410381 1.39 7.263982e-39
0.07942858 0.410381 1.39 7.26398e-39
0.0820762 0.410381 1.39 7.264335e-39
0.08472382 0.410381 1.39 6.98488e-39
0.08737143 0.410381 1.39 6.613614e-39
0.09001905 0.410381 1.39 6.345305e-39
0.09306667 0.4121524 1.396 6.169145e-39
0.09572572 0.4121524 1.396 5.245747e-39
0.09880763 0.4139238 1.402 4.414204e-39
0.1014781 0.4139238 1.402 6.62256e-39
0.1041486 0.4139238 1.402 8.839636e-39
0.106819 0.4139238 1.402 1.154064e-38
0.1094895 0.4139238 1.402 1.41916e-38
0.11256 0.4154 1.407 9.291598e-39
0.11524 0.4154 1.407 4.516508e-39
-0.09945143 0.4082743 1.374 8.75781e-39
-0.09718667 0.40976 1.379 9.214849e-39
-0.09456 0.40976 1.379 8.753533e-39
-0.09160001 0.4082743 1.374 8.385471e-39
-0.08898287 0.4082743 1.374 7.742262e-39
-0.08636572 0.4082743 1.374 7.190149e-39
-0.08338286 0.4064914 1.368 6.344234e-39
-0.08048191 0.4050057 1.363 5.520928e-39
-0.0776 0.40352 1.358 5.248635e-39
-0.07468191 0.4017372 1.352 4.968818e-39
-0.07242667 0.40352 1.358 5.243601e-39
-0.06953143 0.4017372 1.352 5.608069e-39
-0.0669562 0.4017372 1.352 6.433867e-39
-0.06414286 0.4002514 1.347 7.348998e-39
-0.06134857 0.3987657 1.342 7.44012e-39
-0.05901143 0.4002514 1.347 7.623811e-39
-0.05598477 0.3969829 1.336 7.441954e-39
-0.05324 0.3954972 1.331 7.359461e-39
-0.05051429 0.3940115 1.326 7.459206e-39
-0.04798857 0.3940115 1.326 7.554275e-39
-0.04546286 0.3940115 1.326 9.125888e-39
-0.04293714 0.3940115 1.326 1.068925e-38
-0.04041143 0.3940115 1.326 1.087509e-38
-0.03774286 0.3925257 1.321 1.105769e-38
-0.03522667 0.3925257 1.321 1.124136e-38
-0.03283429 0.3940115 1.326 1.142576e-38
-0.03030857 0.3940115 1.326 1.161051e-38
-0.02778286 0.3940115 1.326 1.188747e-38
-0.02535238 0.3954972 1.331 1.179744e-38
-0.02281714 0.3954972 1.331 1.179773e-38
-0.0203581 0.3969829 1.336 9.386969e-39
-0.01796 0.4002514 1.347 7.082489e-39
-0.01539429 0.4002514 1.347 7.34725e-39
-0.01287619 0.4017372 1.352 7.624199e-39
-0.01030095 0.4017372 1.352 8.743451e-39
0.01132191 0.4415543 1.486 5.699183e-39
0.01409524 0.4397714 1.48 4.50569e-39
0.01691429 0.4397714 1.48 3.771375e-39
0.01964 0.4376915 1.473 3.036338e-39
0.02235429 0.4359086 1.467 2.854109e-39
0.02504572 0.4341258 1.461 2.760821e-39
0.0276 0.43056 1.449 2.667894e-39
0.03023429 0.4287772 1.443 2.667536e-39
0.03284571 0.4269943 1.437 2.39167e-39
0.03558286 0.4269943 1.437 2.116164e-39
0.03832 0.4269943 1.437 1.841016e-39
0.04088572 0.4252115 1.431 1.657704e-39
0.04342857 0.4234286 1.425 2.025405e-39
0.04594857 0.4216457 1.419 2.484582e-39
0.04844572 0.4198629 1.413 2.854076e-39
0.05092 0.41808 1.407 3.222136e-39
0.05340952 0.4165943 1.402 3.131019e-39
0.05608 0.4165943 1.402 3.037398e-39
0.05849905 0.4148114 1.396 3.495151e-39
0.0611581 0.4148114 1.396 4.047607e-39
0.06381714 0.4148114 1.396 4.049408e-39
0.0664762 0.4148114 1.396 4.14195e-39
0.0688381 0.4130286 1.39 5.152845e-39
0.07148572 0.4130286 1.39 6.165561e-39
0.07413334 0.4130286 1.39 6.627263e-39
0.07678095 0.4130286 1.39 7.086787e-39
0.07942858 0.4130286 1.39 6.995297e-39
0.0820762 0.4130286 1.39 6.996725e-39
0.08472382 0.4130286 1.39 6.447499e-39
0.08774857 0.4148114 1.396 5.986539e-39
0.09040762 0.4148114 1.396 5.433744e-39
0.09306667 0.4148114 1.396 4.878458e-39
0.09572572 0.4148114 1.396 3.306525e-39
0.09880763 0.4165943 1.402 1.753592e-39
0.1014781 0.4165943 1.402 7.180157e-39
0.1041486 0.4165943 1.402 1.271976e-38
0.106819 0.4165943 1.402 1.58695e-38
0.1094895 0.4165943 1.402 1.897782e-38
0.11256 0.41808 1.407 1.020529e-38
0.11524 0.41808 1.407 1.573114e-39
-0.09981334 0.4123867 1.379 9.034749e-39
-0.09718667 0.4123867 1.379 9.955277e-39
-0.09456 0.4123867 1.379 9.398187e-39
-0.09160001 0.4108914 1.374 8.93865e-39
-0.08898287 0.4108914 1.374 7.923796e-39
-0.08598857 0.4090971 1.368 6.908921e-39
-0.08338286 0.4090971 1.368 6.078795e-39
-0.08018667 0.4061067 1.358 5.340501e-39
-0.0776 0.4061067 1.358 4.970984e-39
-0.07468191 0.4043124 1.352 4.60184e-39
-0.07210667 0.4043124 1.352 4.968815e-39
-0.06953143 0.4043124 1.352 5.242164e-39
-0.0669562 0.4043124 1.352 6.157643e-39
-0.06414286 0.4028172 1.347 7.073846e-39
-0.06157715 0.4028172 1.347 7.348276e-39
-0.05901143 0.4028172 1.347 7.531958e-39
-0.05598477 0.3995276 1.336 7.164986e-39
-0.05324 0.3980324 1.331 6.709417e-39
-0.05051429 0.3965372 1.326 7.27767e-39
-0.04798857 0.3965372 1.326 7.829775e-39
-0.04546286 0.3965372 1.326 9.034415e-39
-0.04293714 0.3965372 1.326 1.032621e-38
-0.04041143 0.3965372 1.326 1.059885e-38
-0.03788572 0.3965372 1.326 1.096549e-38
-0.03536 0.3965372 1.326 1.114953e-38
-0.03283429 0.3965372 1.326 1.133357e-38
-0.03030857 0.3965372 1.326 1.170235e-38
-0.02778286 0.3965372 1.326 1.197823e-38
-0.02535238 0.3980324 1.331 1.188857e-38
-0.02281714 0.3980324 1.331 1.17066e-38
-0.0203581 0.3995276 1.336 1.077561e-38
-0.01789333 0.4013219 1.342 9.831441e-39
-0.01539429 0.4028172 1.347 8.449266e-39
-0.01282857 0.4028172 1.347 7.166462e-39
-0.01026286 0.4028172 1.347 7.913365e-39
0.008525715 0.4461791 1.492 5.513718e-39
0.01132191 0.4443848 1.486 4.871587e-39
0.01409524 0.4425905 1.48 4.319504e-39
0.01691429 0.4425905 1.48 3.861408e-39
0.01964 0.4404971 1.473 3.403301e-39
0.02235429 0.4387029 1.467 3.035955e-39
0.02504572 0.4369086 1.461 2.668612e-39
0.02771429 0.4351143 1.455 2.576059e-39
0.03023429 0.4315257 1.443 2.484223e-39
0.03298286 0.4315257 1.443 2.39167e-39
0.03558286 0.4297314 1.437 2.391312e-39
0.03832 0.4297314 1.437 2.207999e-39
0.04088572 0.4279372 1.431 2.025763e-39
0.04342857 0.4261429 1.425 2.30127e-39
0.04594857 0.4243486 1.419 2.668612e-39
0.04844572 0.4225543 1.413 3.036671e-39
0.05113715 0.4225543 1.413 3.497284e-39
0.0536 0.42076 1.407 3.682031e-39
0.05608 0.4192648 1.402 3.867865e-39
0.05875048 0.4192648 1.402 4.232349e-39
0.0611581 0.4174705 1.396 4.506785e-39
0.06381714 0.4174705 1.396 5.697783e-39
0.0664762 0.4174705 1.396 6.980962e-39
0.0688381 0.4156762 1.39 5.42047e-39
0.07148572 0.4156762 1.39 3.951842e-39
0.07413334 0.4156762 1.39 4.325307e-39
0.07711238 0.4174705 1.396 4.701236e-39
0.07977143 0.4174705 1.396 4.883808e-39
0.08243047 0.4174705 1.396 5.066749e-39
0.08508953 0.4174705 1.396 5.063509e-39
0.08774857 0.4174705 1.396 5.060281e-39
0.09040762 0.4174705 1.396 6.619691e-39
0.09306667 0.4174705 1.396 8.087709e-39
0.09572572 0.4174705 1.396 9.115205e-39
0.09880763 0.4192648 1.402 1.014301e-38
0.1014781 0.4192648 1.402 1.318762e-38
0.1041486 0.4192648 1.402 1.623255e-38
0.106819 0.4192648 1.402 1.632476e-38
0.1094895 0.4192648 1.402 1.641721e-38
0.11256 0.42076 1.407 9.846197e-39
0.11524 0.42076 1.407 3.31369e-39
-0.1094857 0.4324686 1.437 7.270535e-39
-0.1002476 0.4168191 1.385 9.311697e-39
-0.09760953 0.4168191 1.385 1.068961e-38
-0.09497143 0.4168191 1.385 1.00432e-38
-0.09193334 0.4150133 1.379 9.490025e-39
-0.08898287 0.4135086 1.374 8.01383e-39
-0.08636572 0.4135086 1.374 6.633761e-39
-0.08338286 0.4117029 1.368 5.89618e-39
-0.08048191 0.4101981 1.363 5.155748e-39
-0.07788571 0.4101981 1.363 4.692975e-39
-0.07501333 0.4086933 1.358 4.325982e-39
-0.07242667 0.4086933 1.358 4.602198e-39
-0.06953143 0.4068877 1.352 4.965945e-39
-0.0669562 0.4068877 1.352 5.881423e-39
-0.06414286 0.4053829 1.347 6.889459e-39
-0.06157715 0.4053829 1.347 7.164964e-39
-0.05901143 0.4053829 1.347 7.531598e-39
-0.05598477 0.4020724 1.336 6.796567e-39
-0.05324 0.4005677 1.331 6.157326e-39
-0.05070477 0.4005677 1.331 7.096152e-39
-0.04798857 0.3990629 1.326 8.108151e-39
-0.04529143 0.3975581 1.321 9.03513e-39
-0.04293714 0.3990629 1.326 9.954566e-39
-0.04025905 0.3975581 1.321 1.041483e-38
-0.03774286 0.3975581 1.321 1.096586e-38
-0.03522667 0.3975581 1.321 1.115027e-38
-0.03283429 0.3990629 1.326 1.133429e-38
-0.03030857 0.3990629 1.326 1.170234e-38
-0.02778286 0.3990629 1.326 1.216261e-38
-0.02535238 0.4005677 1.331 1.188783e-38
-0.02281714 0.4005677 1.331 1.170484e-38
-0.0203581 0.4020724 1.336 1.216469e-38
-0.01789333 0.4038781 1.342 1.259227e-38
-0.01533714 0.4038781 1.342 9.643107e-39
-0.01282857 0.4053829 1.347 6.798733e-39
-0.01026286 0.4053829 1.347 6.991748e-39
0.008525715 0.449021 1.492 4.135827e-39
0.01132191 0.4472153 1.486 4.137622e-39
0.01409524 0.4454095 1.48 4.135485e-39
0.01683429 0.4433029 1.473 3.951472e-39
0.01964 0.4433029 1.473 3.859982e-39
0.02235429 0.4414972 1.467 3.217479e-39
0.02504572 0.4396915 1.461 2.575344e-39
0.0276 0.43608 1.449 2.484223e-39
0.03036 0.43608 1.449 2.392029e-39
0.03298286 0.4342743 1.443 2.483865e-39
0.03558286 0.4324686 1.437 2.666821e-39
0.03832 0.4324686 1.437 2.575346e-39
0.04088572 0.4306629 1.431 2.484585e-39
0.04324571 0.4270515 1.419 2.669332e-39
0.04594857 0.4270515 1.419 2.852286e-39
0.04844572 0.4252457 1.413 3.311463e-39
0.05113715 0.4252457 1.413 3.865347e-39
0.0536 0.42344 1.407 4.324886e-39
0.05608 0.4219353 1.402 4.784432e-39
0.05875048 0.4219353 1.402 4.876638e-39
0.0611581 0.4201295 1.396 5.06215e-39
0.06381714 0.4201295 1.396 7.477544e-39
0.0664762 0.4201295 1.396 9.845879e-39
0.06913524 0.4201295 1.396 5.786087e-39
0.07148572 0.4183238 1.39 1.745323e-39
0.07413334 0.4183238 1.39 2.020828e-39
0.07711238 0.4201295 1.396 2.296332e-39
0.07977143 0.4201295 1.396 2.663671e-39
0.08243047 0.4201295 1.396 3.122845e-39
0.08508953 0.4201295 1.396 3.674214e-39
0.08774857 0.4201295 1.396 4.236356e-39
0.09040762 0.4201295 1.396 7.829429e-39
0.09306667 0.4201295 1.396 1.143368e-38
0.09572572 0.4201295 1.396 1.503793e-38
0.09838476 0.4201295 1.396 1.861665e-38
0.1010438 0.4201295 1.396 1.916516e-38
0.1041486 0.4219353 1.402 1.972229e-38
0.106819 0.4219353 1.402 1.679182e-38
0.1094895 0.4219353 1.402 1.382824e-38
0.11256 0.42344 1.407 9.487124e-39
0.11524 0.42344 1.407 5.165821e-39
0.11792 0.42344 1.407 6.170977e-39
-0.1209371 0.4370229 1.443 5.896204e-39
-0.1176971 0.4352057 1.437 4.791314e-39
-0.11496 0.4352057 1.437 5.525645e-39
-0.1117543 0.4333886 1.431 6.168147e-39
-0.1085714 0.4315715 1.425 6.444027e-39
-0.09796191 0.4209715 1.39 1.004641e-38
-0.09497143 0.4194572 1.385 9.401083e-39
-0.09193334 0.41764 1.379 8.755702e-39
-0.08898287 0.4161257 1.374 7.644328e-39
-0.08636572 0.4161257 1.374 6.542629e-39
-0.08338286 0.4143086 1.368 5.803251e-39
-0.08048191 0.4127943 1.363 5.155025e-39
-0.07788571 0.4127943 1.363 4.787689e-39
-0.07501333 0.41128 1.358 4.420337e-39
-0.07242667 0.41128 1.358 4.235221e-39
-0.06953143 0.4094629 1.352 4.047237e-39
-0.0669562 0.4094629 1.352 5.240014e-39
-0.06414286 0.4079486 1.347 6.521402e-39
-0.06157715 0.4079486 1.347 6.980934e-39
-0.05901143 0.4079486 1.347 7.441915e-39
-0.05598477 0.4046172 1.336 7.074583e-39
-0.05324 0.4031029 1.331 6.707622e-39
-0.05070477 0.4031029 1.331 7.36305e-39
-0.04798857 0.4015886 1.326 8.111378e-39
-0.04546286 0.4015886 1.326 8.941499e-39
-0.04293714 0.4015886 1.326 9.769463e-39
-0.04041143 0.4015886 1.326 1.023044e-38
-0.03788572 0.4015886 1.326 1.078256e-38
-0.03536 0.4015886 1.326 1.096661e-38
-0.03283429 0.4015886 1.326 1.124282e-38
-0.03030857 0.4015886 1.326 1.142755e-38
-0.02778286 0.4015886 1.326 1.161266e-38
-0.02535238 0.4031029 1.331 1.124174e-38
-0.02281714 0.4031029 1.331 1.087081e-38
-0.02028191 0.4031029 1.331 1.067818e-38
-0.01789333 0.4064343 1.342 1.057766e-38
-0.01533714 0.4064343 1.342 8.816568e-39
-0.01282857 0.4079486 1.347 7.16569e-39
-0.01026286 0.4079486 1.347 7.174668e-39
0.01132191 0.4500457 1.486 3.492623e-39
0.01409524 0.4482286 1.48 3.400455e-39
0.01683429 0.4461086 1.473 3.767825e-39
0.01964 0.4461086 1.473 4.043309e-39
0.02235429 0.4442915 1.467 3.308603e-39
0.02504572 0.4424743 1.461 2.666106e-39
0.0276 0.43884 1.449 2.483865e-39
0.03036 0.43884 1.449 2.392029e-39
0.03298286 0.4370229 1.443 2.575701e-39
0.03558286 0.4352057 1.437 2.850495e-39
0.03816 0.4333886 1.431 2.666469e-39
0.04088572 0.4333886 1.431 2.574272e-39
0.04324571 0.4297543 1.419 2.668617e-39
0.04594857 0.4297543 1.419 2.852288e-39
0.04844572 0.4279372 1.413 3.404378e-39
0.05113715 0.4279372 1.413 3.957906e-39
0.0536 0.42612 1.407 4.511075e-39
0.05608 0.4246057 1.402 5.064609e-39
0.05875048 0.4246057 1.402 4.882026e-39
0.0611581 0.4227886 1.396 4.791356e-39
0.06381714 0.4227886 1.396 8.939469e-39
0.0664762 0.4227886 1.396 1.309356e-38
0.06913524 0.4227886 1.396 1.225805e-38
0.07148572 0.4209715 1.39 1.151473e-38
0.07445333 0.4227886 1.396 1.132744e-38
0.07711238 0.4227886 1.396 1.123239e-38
0.07977143 0.4227886 1.396 1.105627e-38
0.08243047 0.4227886 1.396 1.088014e-38
0.08508953 0.4227886 1.396 1.033344e-38
0.08774857 0.4227886 1.396 9.787108e-39
0.09040762 0.4227886 1.396 1.144913e-38
0.09306667 0.4227886 1.396 1.311119e-38
0.09572572 0.4227886 1.396 1.45806e-38
0.09838476 0.4227886 1.396 1.60503e-38
0.1010438 0.4227886 1.396 1.61414e-38
0.1041486 0.4246057 1.402 1.623253e-38
0.106819 0.4246057 1.402 1.420175e-38
0.1094895 0.4246057 1.402 1.221645e-38
0.11216 0.4246057 1.402 9.396743e-39
0.1148305 0.4246057 1.402 6.630164e-39
0.11792 0.42612 1.407 6.905635e-39
0.1206 0.42612 1.407 7.181886e-39
-0.1209371 0.4397714 1.443 6.169888e-39
-0.1181886 0.4397714 1.443 5.52598e-39
-0.11448 0.4361143 1.431 5.617115e-39
-0.1112857 0.4342857 1.425 5.800797e-39
-0.1085714 0.4342857 1.425 5.709331e-39
-0.1054114 0.4324571 1.419 5.712536e-39
-0.09796191 0.4236191 1.39 9.403184e-39
-0.09497143 0.4220953 1.385 8.752116e-39
-0.09193334 0.4202667 1.379 8.105297e-39
-0.08898287 0.4187429 1.374 7.275166e-39
-0.08636572 0.4187429 1.374 6.538669e-39
-0.08338286 0.4169143 1.368 5.80253e-39
-0.08048191 0.4153905 1.363 5.155383e-39
-0.07788571 0.4153905 1.363 4.788405e-39
-0.07501333 0.4138667 1.358 4.511808e-39
-0.07242667 0.4138667 1.358 3.776394e-39
-0.06953143 0.4120381 1.352 3.131028e-39
-0.0669562 0.4120381 1.352 4.598596e-39
-0.06414286 0.4105143 1.347 6.155492e-39
-0.06157715 0.4105143 1.347 6.796904e-39
-0.05879238 0.4089905 1.342 7.440836e-39
-0.05598477 0.4071619 1.336 7.350444e-39
-0.05344 0.4071619 1.336 7.257908e-39
-0.05070477 0.4056381 1.331 7.630289e-39
-0.04816953 0.4056381 1.331 8.107078e-39
-0.04546286 0.4041143 1.326 8.848253e-39
-0.04293714 0.4041143 1.326 9.584007e-39
-0.04041143 0.4041143 1.326 1.013788e-38
-0.03788572 0.4041143 1.326 1.068999e-38
-0.03536 0.4041143 1.326 1.087475e-38
-0.03283429 0.4041143 1.326 1.115025e-38
-0.03030857 0.4041143 1.326 1.106092e-38
-0.02778286 0.4041143 1.326 1.105948e-38
-0.02535238 0.4056381 1.331 1.059348e-38
-0.02281714 0.4056381 1.331 1.013322e-38
-0.02028191 0.4056381 1.331 9.287693e-39
-0.01789333 0.4089905 1.342 8.546867e-39
-0.01539429 0.4105143 1.347 8.081906e-39
-0.01287619 0.4120381 1.352 7.626682e-39
-0.01030095 0.4120381 1.352 7.357641e-39
0.01132191 0.4528762 1.486 2.940532e-39
0.01409524 0.4510476 1.48 2.756874e-39
0.01683429 0.4489143 1.473 3.493007e-39
0.01956 0.4470857 1.467 4.319156e-39
0.02235429 0.4470857 1.467 3.492267e-39
0.02504572 0.4452572 1.461 2.757939e-39
0.0276 0.4416001 1.449 2.5757e-39
0.03036 0.4416001 1.449 2.39203e-39
0.03298286 0.4397714 1.443 2.759375e-39
0.03558286 0.4379429 1.437 3.126375e-39
0.03816 0.4361143 1.431 2.849452e-39
0.04071429 0.4342857 1.425 2.666483e-39
0.04324571 0.4324571 1.419 2.759738e-39
0.04594857 0.4324571 1.419 2.944124e-39
0.04844572 0.4306286 1.413 3.497645e-39
0.05113715 0.4306286 1.413 4.049751e-39
0.0536 0.4288 1.407 4.69764e-39
0.05608 0.4272762 1.402 5.432697e-39
0.05875048 0.4272762 1.402 4.973893e-39
0.06142095 0.4272762 1.402 4.519444e-39
0.06381714 0.4254476 1.396 1.040164e-38
0.0664762 0.4254476 1.396 1.631071e-38
0.06913524 0.4254476 1.396 1.881792e-38
0.07179429 0.4254476 1.396 2.128957e-38
0.07445333 0.4254476 1.396 2.073065e-38
0.07711238 0.4254476 1.396 2.027577e-38
0.07977143 0.4254476 1.396 1.945355e-38
0.08243047 0.4254476 1.396 1.86941e-38
0.08508953 0.4254476 1.396 1.695209e-38
0.08774857 0.4254476 1.396 1.529406e-38
0.09040762 0.4254476 1.396 1.501606e-38
0.09306667 0.4254476 1.396 1.485465e-38
0.09572572 0.4254476 1.396 1.410168e-38
0.09838476 0.4254476 1.396 1.345916e-38
0.1014781 0.4272762 1.402 1.309252e-38
0.1041486 0.4272762 1.402 1.271945e-38
0.106819 0.4272762 1.402 1.170353e-38
0.1094895 0.4272762 1.402 1.068861e-38
0.11216 0.4272762 1.402 9.398178e-39
0.1148305 0.4272762 1.402 8.197819e-39
0.11792 0.4288 1.407 7.640667e-39
0.1206 0.4288 1.407 7.180084e-39
0.12328 0.4288 1.407 7.086843e-39
-0.1209371 0.44252 1.443 6.077305e-39
-0.1181886 0.44252 1.443 5.525962e-39
-0.11448 0.43884 1.431 5.61675e-39
-0.1112857 0.437 1.425 5.802582e-39
-0.1085714 0.437 1.425 5.802949e-39
-0.1054114 0.43516 1.419 5.895111e-39
-0.09796191 0.4262667 1.39 8.760311e-39
-0.09497143 0.4247334 1.385 8.10602e-39
-0.09193334 0.4228933 1.379 7.456686e-39
-0.08898287 0.42136 1.374 6.721258e-39
-0.08598857 0.41952 1.368 6.077684e-39
-0.08338286 0.41952 1.368 5.524869e-39
-0.08048191 0.4179867 1.363 4.880232e-39
-0.07788571 0.4179867 1.363 4.60545e-39
-0.07501333 0.4164533 1.358 4.42248e-39
-0.07210667 0.4146134 1.352 4.053327e-39
-0.06953143 0.4146134 1.352 3.776023e-39
-0.0669562 0.4146134 1.352 4.691863e-39
-0.06414286 0.41308 1.347 5.606271e-39
-0.06157715 0.41308 1.347 6.429562e-39
-0.05879238 0.4115466 1.342 7.164611e-39
-0.05598477 0.4097067 1.336 7.25681e-39
-0.05344 0.4097067 1.336 7.349373e-39
-0.05070477 0.4081734 1.331 7.71852e-39
-0.04816953 0.4081734 1.331 8.194971e-39
-0.04546286 0.40664 1.326 8.751779e-39
-0.04293714 0.40664 1.326 9.307074e-39
-0.04041143 0.40664 1.326 9.769458e-39
-0.03788572 0.40664 1.326 1.032084e-38
-0.03536 0.40664 1.326 1.041376e-38
-0.03283429 0.40664 1.326 1.059851e-38
-0.03030857 0.40664 1.326 1.069035e-38
-0.02778286 0.40664 1.326 1.0874e-38
-0.02535238 0.4081734 1.331 1.041265e-38
-0.02281714 0.4081734 1.331 9.947009e-39
-0.02028191 0.4081734 1.331 9.191875e-39
-0.01789333 0.4115466 1.342 8.545066e-39
-0.01533714 0.4115466 1.342 7.994757e-39
-0.01278095 0.4115466 1.342 7.444825e-39
-0.01022476 0.4115466 1.342 7.271206e-39
0.01132191 0.4557067 1.486 2.113653e-39
0.01409524 0.4538667 1.48 1.56264e-39
0.01683429 0.45172 1.473 3.584814e-39
0.01956 0.44988 1.467 5.607706e-39
0.02235429 0.44988 1.467 4.502811e-39
0.02504572 0.44804 1.461 3.401143e-39
0.0276 0.44436 1.449 2.575343e-39
0.03036 0.44436 1.449 1.843173e-39
0.03298286 0.44252 1.443 2.301277e-39
0.03558286 0.44068 1.437 2.851244e-39
0.03816 0.43884 1.431 2.667247e-39
0.04071429 0.437 1.425 2.483188e-39
0.04324571 0.43516 1.419 2.575713e-39
0.04575429 0.43332 1.413 2.668976e-39
0.04844572 0.43332 1.413 3.220342e-39
0.05113715 0.43332 1.413 3.86645e-39
0.0536 0.43148 1.407 4.23777e-39
0.05608 0.4299467 1.402 4.607642e-39
0.05875048 0.4299467 1.402 5.251585e-39
0.06142095 0.4299467 1.402 5.808735e-39
0.06381714 0.4281067 1.396 9.208842e-39
0.0664762 0.4281067 1.396 1.26402e-38
0.06913524 0.4281067 1.396 1.632304e-38
0.07179429 0.4281067 1.396 2.009797e-38
0.07413334 0.4262667 1.39 2.019195e-38
0.07711238 0.4281067 1.396 2.028591e-38
0.07977143 0.4281067 1.396 1.898691e-38
0.08243047 0.4281067 1.396 1.769222e-38
0.08508953 0.4281067 1.396 1.714046e-38
0.08774857 0.4281067 1.396 1.657657e-38
0.09040762 0.4281067 1.396 1.658737e-38
0.09306667 0.4281067 1.396 1.659846e-38
0.09572572 0.4281067 1.396 1.586052e-38
0.09838476 0.4281067 1.396 1.512295e-38
0.1010438 0.4281067 1.396 1.456474e-38
0.1037029 0.4281067 1.396 1.400836e-38
0.1063619 0.4281067 1.396 1.281272e-38
0.1094895 0.4299467 1.402 1.1617e-38
0.11216 0.4299467 1.402 1.004462e-38
0.1148305 0.4299467 1.402 8.481572e-39
0.11792 0.43148 1.407 8.011945e-39
0.1206 0.43148 1.407 7.543471e-39
0.1238057 0.43332 1.413 7.177955e-39
0.1264971 0.43332 1.413 6.905309e-39
-0.1242 0.44712 1.449 6.352848e-39
-0.1209371 0.4452686 1.443 5.893297e-39
-0.1181886 0.4452686 1.443 5.52526e-39
-0.11448 0.4415658 1.431 5.616759e-39
-0.1112857 0.4397143 1.425 5.801507e-39
-0.1085714 0.4397143 1.425 5.986257e-39
-0.1054114 0.4378629 1.419 6.169535e-39
-0.09531429 0.4289143 1.39 7.459924e-39
-0.09193334 0.42552 1.379 6.812382e-39
-0.08898287 0.4239772 1.374 6.260981e-39
-0.08598857 0.4221257 1.368 5.707824e-39
-0.08338286 0.4221257 1.368 5.155025e-39
-0.08048191 0.4205829 1.363 4.698018e-39
-0.07788571 0.4205829 1.363 4.515801e-39
-0.07501333 0.41904 1.358 4.331021e-39
-0.07242667 0.41904 1.358 4.422107e-39
-0.06953143 0.4171886 1.352 4.512502e-39
-0.0669562 0.4171886 1.352 4.785492e-39
-0.06414286 0.4156457 1.347 5.14817e-39
-0.06157715 0.4156457 1.347 6.062579e-39
-0.05879238 0.4141029 1.342 6.980937e-39
-0.05623619 0.4141029 1.342 7.256448e-39
-0.05344 0.4122514 1.336 7.531607e-39
-0.05089524 0.4122514 1.336 7.89896e-39
-0.04835048 0.4122514 1.336 8.27637e-39
-0.04563429 0.4107086 1.331 8.655575e-39
-0.04293714 0.4091657 1.326 9.120144e-39
-0.04041143 0.4091657 1.326 9.493237e-39
-0.03788572 0.4091657 1.326 9.952776e-39
-0.03536 0.4091657 1.326 1.004569e-38
-0.03283429 0.4091657 1.326 1.013791e-38
-0.03030857 0.4091657 1.326 1.041379e-38
-0.02778286 0.4091657 1.326 1.068996e-38
-0.02535238 0.4107086 1.331 1.023181e-38
-0.02290286 0.4122514 1.336 9.757213e-39
-0.0203581 0.4122514 1.336 9.187915e-39
-0.01781333 0.4122514 1.336 8.636883e-39
-0.01526857 0.4122514 1.336 7.902181e-39
-0.01272381 0.4122514 1.336 7.261492e-39
-0.01017905 0.4122514 1.336 7.184732e-39
0.01409524 0.4566857 1.48 4.613313e-40
0.01683429 0.4545257 1.473 3.677009e-39
0.01964 0.4545257 1.473 6.891251e-39
0.02235429 0.4526743 1.467 5.421883e-39
0.02504572 0.4508229 1.461 4.044352e-39
0.0276 0.44712 1.449 2.66718e-39
0.03023429 0.4452686 1.443 1.2918e-39
0.03284571 0.4434172 1.437 1.936084e-39
0.03558286 0.4434172 1.437 2.669349e-39
0.03816 0.4415658 1.431 2.484617e-39
0.04071429 0.4397143 1.425 2.39205e-39
0.04324571 0.4378629 1.419 2.391679e-39
0.04575429 0.4360115 1.413 2.485305e-39
0.04844572 0.4360115 1.413 3.03524e-39
0.05113715 0.4360115 1.413 3.683501e-39
0.0536 0.43416 1.407 3.777878e-39
0.05608 0.4326172 1.402 3.873312e-39
0.05875048 0.4326172 1.402 5.529234e-39
0.0611581 0.4307657 1.396 7.187693e-39
0.06381714 0.4307657 1.396 8.016045e-39
0.0664762 0.4307657 1.396 8.955607e-39
0.06913524 0.4307657 1.396 1.392983e-38
0.07148572 0.4289143 1.39 1.889868e-38
0.07413334 0.4289143 1.39 1.964345e-38
0.07711238 0.4307657 1.396 2.037237e-38
0.07942858 0.4289143 1.39 1.852057e-38
0.08243047 0.4307657 1.396 1.677676e-38
0.08508953 0.4307657 1.396 1.732884e-38
0.08774857 0.4307657 1.396 1.797923e-38
0.09040762 0.4307657 1.396 1.81708e-38
0.09306667 0.4307657 1.396 1.833974e-38
0.09572572 0.4307657 1.396 1.760432e-38
0.09838476 0.4307657 1.396 1.686712e-38
0.1010438 0.4307657 1.396 1.612884e-38
0.1037029 0.4307657 1.396 1.53902e-38
0.1063619 0.4307657 1.396 1.400872e-38
0.1094895 0.4326172 1.402 1.262647e-38
0.11168 0.4307657 1.396 1.069142e-38
0.1148305 0.4326172 1.402 8.850757e-39
0.117501 0.4326172 1.402 8.383679e-39
0.1206 0.43416 1.407 7.915879e-39
0.12328 0.43416 1.407 7.361267e-39
0.1264971 0.4360115 1.413 6.813106e-39
-0.12972 0.44988 1.449 8.644799e-39
-0.12696 0.44988 1.449 7.26872e-39
-0.1236857 0.4480172 1.443 5.892611e-39
-0.1209371 0.4480172 1.443 5.616736e-39
-0.1176971 0.4461543 1.437 5.433081e-39
-0.114 0.4424286 1.425 5.524932e-39
-0.1112857 0.4424286 1.425 5.616763e-39
-0.1085714 0.4424286 1.425 5.70967e-39
-0.1054114 0.4405657 1.419 5.801109e-39
-0.1022743 0.4387029 1.413 7.00175e-39
-0.09880763 0.4352877 1.402 8.110978e-39
-0.09531429 0.4315619 1.39 6.814547e-39
-0.09193334 0.4281467 1.379 5.433395e-39
-0.08898287 0.4265943 1.374 5.342244e-39
-0.08636572 0.4265943 1.374 5.337605e-39
-0.08338286 0.4247314 1.368 4.97244e-39
-0.08077715 0.4247314 1.368 4.699476e-39
-0.07817143 0.4247314 1.368 4.516194e-39
-0.07528953 0.4231791 1.363 4.333193e-39
-0.07242667 0.4216267 1.358 4.331352e-39
-0.06984 0.4216267 1.358 4.238791e-39
-0.0669562 0.4197638 1.352 4.052601e-39
-0.06414286 0.4182115 1.347 3.955385e-39
-0.06157715 0.4182115 1.347 5.237853e-39
-0.05901143 0.4182115 1.347 6.522117e-39
-0.05623619 0.4166591 1.342 6.980937e-39
-0.05344 0.4147962 1.336 7.531962e-39
-0.05089524 0.4147962 1.336 7.807123e-39
-0.04835048 0.4147962 1.336 8.082622e-39
-0.04563429 0.4132438 1.331 8.275256e-39
-0.04293714 0.4116915 1.326 8.560133e-39
-0.04041143 0.4116915 1.326 8.934693e-39
-0.03788572 0.4116915 1.326 9.309566e-39
-0.03536 0.4116915 1.326 9.586506e-39
-0.03283429 0.4116915 1.326 9.864921e-39
-0.03030857 0.4116915 1.326 9.953927e-39
-0.02788762 0.4132438 1.331 1.014468e-38
-0.02544762 0.4147962 1.336 9.580668e-39
-0.02290286 0.4147962 1.336 9.108598e-39
-0.0203581 0.4147962 1.336 8.820919e-39
-0.01789333 0.4166591 1.342 8.453553e-39
-0.01533714 0.4166591 1.342 7.16891e-39
-0.01278095 0.4166591 1.342 5.884297e-39
-0.01022476 0.4166591 1.342 6.26277e-39
-0.007668572 0.4166591 1.342 6.631178e-39
0.01409524 0.4595048 1.48 1.013062e-39
0.01683429 0.4573314 1.473 3.124561e-39
0.01956 0.4554686 1.467 5.236418e-39
0.02235429 0.4554686 1.467 4.687199e-39
0.02504572 0.4536057 1.461 4.136187e-39
0.0276 0.44988 1.449 3.402582e-39
0.03023429 0.4480172 1.443 2.760809e-39
0.03284571 0.4461543 1.437 2.762242e-39
0.03558286 0.4461543 1.437 2.762601e-39
0.03816 0.4442915 1.431 2.486736e-39
0.04071429 0.4424286 1.425 2.303066e-39
0.04324571 0.4405657 1.419 1.935008e-39
0.04575429 0.4387029 1.413 1.659146e-39
0.04844572 0.4387029 1.413 2.485309e-39
0.05092 0.43684 1.407 3.408716e-39
0.0536 0.43684 1.407 3.870793e-39
0.05608 0.4352877 1.402 4.333204e-39
0.05875048 0.4352877 1.402 5.621777e-39
0.0611581 0.4334248 1.396 6.822133e-39
0.06381714 0.4334248 1.396 8.018904e-39
0.0664762 0.4334248 1.396 9.312131e-39
0.06913524 0.4334248 1.396 1.262574e-38
0.07148572 0.4315619 1.39 1.59398e-38
0.07413334 0.4315619 1.39 1.714308e-38
0.07711238 0.4334248 1.396 1.825477e-38
0.07977143 0.4334248 1.396 1.761119e-38
0.08243047 0.4334248 1.396 1.705983e-38
0.08508953 0.4334248 1.396 1.742467e-38
0.08774857 0.4334248 1.396 1.789602e-38
0.09040762 0.4334248 1.396 1.779735e-38
0.09306667 0.4334248 1.396 1.77855e-38
0.09572572 0.4334248 1.396 1.705044e-38
0.09838476 0.4334248 1.396 1.64076e-38
0.1010438 0.4334248 1.396 1.61321e-38
0.1037029 0.4334248 1.396 1.59484e-38
0.1063619 0.4334248 1.396 1.447039e-38
0.1090209 0.4334248 1.396 1.308529e-38
0.11168 0.4334248 1.396 1.124604e-38
0.114339 0.4334248 1.396 9.495808e-39
0.117501 0.4352877 1.402 8.844021e-39
0.1201714 0.4352877 1.402 8.288647e-39
0.1228419 0.4352877 1.402 7.638209e-39
0.12596 0.43684 1.407 7.088604e-39
0.12864 0.43684 1.407 6.814149e-39
-0.12972 0.45264 1.449 9.286911e-39
-0.12696 0.45264 1.449 7.359095e-39
-0.1236857 0.4507657 1.443 5.43233e-39
-0.1204343 0.4488914 1.437 5.434828e-39
-0.1172057 0.4470172 1.431 5.434146e-39
-0.114 0.4451429 1.425 5.433822e-39
-0.1108171 0.4432686 1.419 5.43417e-39
-0.1081143 0.4432686 1.419 5.434517e-39
-0.1049657 0.4413943 1.413 5.526692e-39
-0.1022743 0.4413943 1.413 6.812728e-39
-0.09916 0.43952 1.407 8.189907e-39
-0.09572572 0.4360838 1.396 6.169532e-39
-0.09193334 0.4307733 1.379 4.148415e-39
-0.08898287 0.4292114 1.374 4.51538e-39
-0.08636572 0.4292114 1.374 4.97422e-39
-0.08338286 0.4273371 1.368 4.790211e-39
-0.08077715 0.4273371 1.368 4.699467e-39
-0.07817143 0.4273371 1.368 4.517605e-39
-0.07528953 0.4257753 1.363 4.425019e-39
-0.07242667 0.4242133 1.358 4.240595e-39
-0.06953143 0.4223391 1.352 4.055482e-39
-0.0669562 0.4223391 1.352 3.411911e-39
-0.06414286 0.4207772 1.347 2.762244e-39
-0.06157715 0.4207772 1.347 4.413127e-39
-0.05879238 0.4192152 1.342 6.06509e-39
-0.05623619 0.4192152 1.342 6.799058e-39
